ply
format ascii 1.0
comment Created by Open3D
element vertex 1854
property double x
property double y
property double z
end_header
1.04083 1.47861 -6.65624
1.24527 1.53559 -6.99923
-6.51291 -3.57466 -9.97472
6.09439 -3.40481 -11.2898
1.03435 -0.922428 -8.03374
-0.16576 3.10055 -7.7824
1.26933 1.53875 -7.02714
1.26293 1.57083 -7.02233
0.761566 -1.94847 -7.48157
-1.29637 1.24326 -7.61493
2.45137 0.927995 -9.87309
2.01896 1.84219 -8.11823
1.29904 1.53853 -7.0762
3.36528 0.163037 -13.9395
2.77061 -2.8346 -15.005
1.32608 1.58609 -7.14149
-8.26226 -2.94036 -13.0572
4.87025 -3.02404 -9.83474
0.318278 -0.0162163 -6.78024
3.17647 1.87219 -9.75206
2.01675 0.919752 -9.23598
1.19568 -0.64044 -8.54389
0.398776 -0.144291 -7.0145
1.41248 1.5812 -7.24518
1.57338 -0.62037 -9.0654
0.552548 2.38947 -7.23405
2.24616 0.216761 -9.65032
1.51746 1.59519 -7.38281
2.72188 1.60338 -9.95478
1.51629 1.64939 -7.51527
1.62283 1.64533 -7.57778
-1.87822 1.15777 -8.00125
2.59732 -0.255757 -10.1426
-0.268599 -2.30434 -7.45083
-4.5282 -3.36259 -12.1679
1.05701 1.43324 -6.79608
-2.01815 0.0912223 -8.38481
1.8207 1.67619 -7.80099
3.62438 -3.16512 -12.7152
0.404945 0.913626 -7.17468
1.83504 1.6531 -7.84192
6.65591 -0.654758 -10.5232
-4.32682 -3.44643 -10.8216
1.87183 1.65936 -7.86977
2.02581 1.73666 -8.13187
2.18997 1.7207 -8.27433
-5.07444 -3.45717 -11.5879
2.58676 -3.19451 -10.1727
-6.13236 -3.40346 -11.7172
3.92927 1.48121 -12.4802
4.03323 -0.8555 -13.2467
2.60478 1.65605 -9.83586
3.3296 2.01041 -11.9435
-6.27882 -3.14823 -13.8758
4.6425 0.97721 -12.2204
-5.82954 -3.38422 -11.406
0.626307 -2.47138 -7.69685
2.18986 1.76148 -8.39197
3.98864 -0.900235 -13.2773
-4.78265 -3.47386 -11.4137
2.9469 1.00995 -10.1807
2.18233 1.7886 -8.48146
3.81233 -3.10202 -13.0894
1.63843 -0.346053 -9.09902
4.47588 -0.0910777 -12.3356
1.17246 0.864517 -7.76241
2.30186 1.17215 -9.41383
1.71914 -0.619991 -9.07376
1.66726 -3.13545 -8.87161
1.80017 -0.385876 -9.14225
5.06678 0.935371 -11.4609
2.17807 1.79795 -8.49675
2.41461 1.34999 -9.83878
1.24306 -0.859569 -8.62677
2.43949 0.519504 -9.83391
1.11093 3.15553 -9.60452
2.25117 1.77445 -8.51614
-2.15265 -1.498 -4.91074
3.69035 1.52823 -12.0556
2.36889 1.78717 -8.62341
0.612022 -2.79093 -7.50829
0.380728 0.939513 -6.35718
4.21391 -1.22143 -13.0835
4.23122 1.1168 -12.8963
1.0699 0.698171 -7.89844
2.73087 1.84987 -9.07402
4.3689 -1.33467 -8.99512
2.77985 1.85342 -9.06882
3.9637 -1.06598 -8.2319
2.61364 1.83972 -9.05939
2.78938 1.83028 -9.10821
-0.538449 3.63395 -7.88762
0.69906 1.34206 -7.07457
0.676167 0.518499 -7.26102
2.84966 -1.29268 -6.5942
2.2377 0.638864 -13.9735
2.96593 1.90445 -9.41579
0.579549 -2.7042 -7.61684
0.727111 1.43824 -6.28826
2.19752 -2.66042 -9.71559
1.33292 1.54013 -7.1385
2.44331 0.753836 -12.9467
3.92691 -3.11702 -13.0161
1.75467 -1.58384 -4.76258
0.725089 -2.9699 -7.57892
-0.806232 2.10006 -7.53495
1.91952 1.69325 -7.93605
2.54492 0.898635 -10.006
-6.83088 -3.55055 -9.97906
3.07188 -3.00884 -13.5474
-5.83448 -3.3578 -12.3201
1.31645 0.00535537 -8.36866
2.21687 1.73437 -8.24446
2.22715 1.7611 -8.46015
1.39176 -2.72561 -8.58736
-2.03496 -2.42584 -8.67638
0.361558 -1.27739 -7.02458
0.434874 1.23814 -6.43223
1.12157 0.14108 -8.08225
-2.30543 0.158257 -8.53505
0.825396 1.11425 -7.35569
-6.5409 -3.6734 -9.31455
2.461 1.77598 -8.59782
-0.681423 -1.93309 -7.45444
1.20314 0.844473 -8.34936
-0.111252 -1.8825 -7.06531
2.47369 0.942655 -9.89943
-2.81359 -1.44881 -5.32018
1.68804 -2.43018 -9.18957
3.56221 -3.52555 -10.2599
2.54418 1.77936 -8.74747
2.84346 -0.867257 -14.9394
2.60347 1.82018 -9.00656
0.0264152 0.397527 -6.83293
0.984257 -1.34258 -7.974
2.67395 1.84891 -9.10025
-6.61638 -3.31515 -11.9985
2.69066 -3.40874 -10.3497
2.82622 1.84169 -9.1156
-0.719733 2.54985 -7.74839
-5.31594 -3.38798 -12.0579
2.28217 0.461933 -13.9513
3.17994 1.92292 -9.61189
-1.16967 -1.39935 -7.92772
-7.05806 -3.00849 -15.0594
3.36297 1.95606 -9.91088
-8.14082 -3.02192 -14.4905
2.96766 -3.42869 -10.5634
-0.401759 -2.24904 -7.54365
4.64087 1.48559 -13.2056
-5.86343 -2.66186 -7.61415
3.43328 1.9593 -10.0119
2.73878 1.24362 -10.0752
0.942383 -2.00777 -7.84839
-8.18671 -3.40728 -11.1265
0.499338 1.35922 -5.94707
0.318489 1.23283 -6.36951
1.74335 0.00333399 -8.96151
1.05121 1.17754 -7.6739
-7.28588 -3.18137 -13.2547
0.999293 1.29132 -7.5561
1.08856 1.47516 -6.72221
2.42996 0.0963575 -9.95889
2.54788 -1.17113 -5.92721
0.552629 0.460401 -7.08152
1.31602 1.55386 -7.10446
1.59302 1.59516 -7.49784
1.92493 1.6552 -7.93098
0.632469 3.70174 -9.60134
2.12855 1.70046 -8.21461
1.91858 1.07271 -9.37563
-6.20667 -3.27437 -12.8379
3.42172 -1.1964 -7.41621
2.20863 1.71608 -8.37596
-5.07487 -3.4122 -11.9235
0.977268 -0.922814 -7.91924
2.23101 1.71783 -8.4072
-3.98321 0.166641 -9.0334
0.525072 1.34464 -6.82066
0.639283 -0.930896 -7.43618
1.70409 -1.41918 -9.07485
-4.1144 0.699542 -7.97379
1.04171 1.31205 -6.5809
2.30649 1.75437 -8.53581
-2.98754 1.56749 -8.16634
1.95584 1.54354 -8.45716
1.40989 -0.140206 -8.52486
1.21259 -0.147934 -8.23486
-4.36242 -3.33578 -12.1712
-5.85585 -2.12624 -7.55436
2.12655 0.395311 -9.4239
2.72312 1.82806 -9.10467
1.52016 1.47457 -8.2807
4.56579 -1.64425 -9.0981
3.19161 1.91775 -9.65606
-7.35949 -3.46002 -10.6713
3.62211 -3.4147 -10.9591
0.389911 1.58011 -5.94069
-0.54444 1.34797 -7.04993
-1.31322 0.189094 -7.86415
0.0637037 0.681499 -6.56134
0.843112 -1.92181 -7.57427
0.27047 -1.15181 -6.91715
0.4933 1.31072 -5.7627
3.12208 1.79216 -9.57516
-7.41141 -3.60107 -9.77009
-1.1776 2.69899 -8.15025
3.31274 1.83928 -9.84828
5.00087 -3.18886 -12.0534
0.991684 -2.00225 -7.91517
0.388949 1.1153 -6.72124
0.586966 1.37105 -5.97486
1.12143 0.454032 -7.91327
-7.83314 -3.12293 -13.6138
0.706538 1.37813 -6.05874
2.02978 -0.597151 -9.45013
0.762748 0.275933 -7.42625
0.756032 1.36237 -6.11461
0.738614 1.40822 -6.25064
-0.501938 2.60644 -7.76678
0.781538 1.4329 -6.42989
-0.584152 1.17414 -7.12455
1.31932 -1.91825 -4.33884
1.04437 0.936972 -7.8086
3.98998 -0.799003 -13.2482
-5.14273 -3.46461 -10.1277
-8.1921 -2.89422 -15.5523
2.38839 1.55453 -8.55809
5.01571 1.83881 -11.8298
0.913548 1.41878 -6.43842
3.19257 -3.00702 -13.921
1.9681 -2.01331 -9.58486
1.17183 1.48549 -6.91295
3.15611 -3.03639 -13.4403
-5.7954 -3.22094 -13.1508
4.94824 1.17008 -12.1168
-1.90037 -2.84755 -8.43898
1.4211 1.47065 -8.14073
1.38778 1.53606 -7.2149
1.10497 -0.378871 -8.0946
0.680323 1.24364 -7.07962
5.21141 -1.28689 -13.5165
1.40472 1.54261 -7.25295
0.26079 0.845935 -6.50351
1.43322 0.0820386 -8.56302
3.34594 -0.391346 -14.1049
1.40324 1.57849 -7.31253
1.35444 1.2385 -8.09665
-1.00441 -1.22171 -7.8358
3.5693 -0.877283 -14.3202
0.795528 -0.499654 -7.67945
1.41908 1.57708 -7.3555
-7.60801 -2.94873 -15.3785
-5.32205 -3.40156 -12.0109
6.86036 0.568187 -14.6812
1.56678 -1.87754 -4.68825
-4.78841 -3.54995 -9.77101
-8.87328 -3.24656 -12.3226
1.46341 1.57881 -7.36182
-1.6117 -3.44178 -8.25962
1.70626 1.60391 -7.67034
1.33051 0.282411 -8.2806
2.31824 0.400836 -9.70874
0.599542 -0.586742 -7.40798
1.37135 1.47091 -8.07336
-4.60027 -0.149081 -8.52554
0.613311 2.11432 -7.11005
1.6507 1.47425 -8.45673
1.77633 1.64296 -7.83976
-6.32338 -3.51754 -10.2436
1.95587 1.46978 -8.92723
2.03781 1.6739 -8.11573
1.78651 1.58535 -7.89226
3.5567 0.528228 -12.4395
-7.84757 -3.20022 -13.0952
5.30986 1.61391 -10.9571
0.570374 0.709917 -7.23964
0.488167 -2.00266 -7.09425
2.12507 1.70334 -8.28081
2.25879 1.71347 -8.44328
5.37068 1.33813 -12.7727
-5.59441 -3.16367 -13.8259
2.31203 1.71457 -8.51687
2.54533 1.77442 -8.82602
0.979282 1.3721 -7.03407
2.33879 -0.317822 -13.2074
2.55915 1.77758 -8.87101
6.20587 -1.16822 -10.8545
-9.33901 -2.57134 -17.6516
2.34772 1.48442 -9.48539
2.56605 1.80411 -8.91556
2.58115 1.81629 -8.94151
3.16678 1.88915 -9.65645
0.2549 -2.61599 -7.15782
-6.74361 -3.35547 -11.9675
3.24422 1.89235 -9.74193
1.86173 -2.7991 -9.19701
-2.37638 -0.076915 -8.60039
1.03003 -2.28478 -8.24235
3.26363 1.90515 -9.78127
0.730246 1.35002 -6.06137
-4.14614 0.711595 -7.9795
3.50609 -1.57228 -7.55392
4.48616 -1.51718 -12.7711
0.544871 -0.195997 -7.27495
3.03924 -1.63238 -6.84021
-5.37577 -3.74562 -8.99118
0.794326 1.38165 -6.17274
0.973262 1.41767 -6.5466
1.80918 0.877465 -8.95304
0.493998 -0.143612 -7.19724
1.21317 1.48079 -6.91786
-0.384917 -1.28634 -7.39958
4.13389 -1.08338 -8.33211
1.74719 -0.684263 -9.07854
-4.56064 -0.00447964 -8.45601
-1.00843 -1.76263 -7.66235
-1.77155 -2.83679 -8.34933
1.40021 1.52998 -7.31971
4.76126 -3.05 -13.109
0.528032 0.929029 -7.18081
1.46102 1.49596 -7.3958
1.5243 1.53416 -7.38789
2.13562 0.80852 -13.91
-1.55334 2.45176 -8.34546
2.50769 0.698794 -9.88335
0.807718 2.8932 -9.62361
-4.4209 -3.46894 -10.9271
-6.57314 -3.47585 -10.7992
4.2251 -2.0476 -8.67703
2.41468 1.77391 -8.61522
2.6628 1.82103 -9.06269
2.59708 1.21688 -10.0009
0.673764 0.460466 -7.26233
-0.343658 3.34168 -7.92915
1.50438 1.43332 -8.24291
3.28522 1.89424 -9.82094
0.0302484 -2.48099 -7.26458
-5.7152 -3.78563 -8.26404
-2.11869 0.886452 -8.51167
0.570729 -0.622595 -7.37574
0.134781 0.691455 -6.62103
1.92086 -1.1648 -9.32448
3.31467 1.89953 -9.85543
4.89203 1.91734 -11.8539
0.788269 1.36145 -6.1371
0.200078 -0.798632 -6.87988
1.05016 1.42378 -6.65348
3.2758 -3.39409 -11.342
0.528739 -1.88142 -7.11834
1.76223 -1.57835 -8.93561
1.24624 1.48824 -6.99785
1.60889 0.769549 -8.67321
-1.13256 1.72118 -6.76335
0.853715 -1.76522 -7.57297
3.88165 -3.38728 -11.3676
1.0061 1.40787 -7.54174
0.027298 1.34126 -6.65236
2.40924 0.700715 -9.73095
1.41918 1.53066 -7.36382
0.495668 -1.69831 -7.26139
1.54969 1.54906 -7.43563
4.62359 2.33033 -13.1956
-1.67547 -0.38763 -8.19212
6.24923 -1.45988 -10.8554
1.75185 1.61124 -7.8157
0.496047 1.30208 -5.93624
2.09969 1.6588 -8.20804
1.89881 1.05357 -9.35161
2.77888 2.33165 -9.74608
-4.47571 -3.70559 -9.12634
2.41572 1.60709 -8.62119
-3.17492 -2.90806 -5.86361
2.12903 1.70009 -8.32423
2.05648 1.48254 -9.06122
-1.30783 2.66006 -8.14922
2.33854 1.71266 -8.54466
1.10205 0.954354 -7.76415
2.03709 -1.33259 -9.50259
2.11988 0.804137 -9.30573
3.14528 -3.18774 -12.5894
2.65183 1.77583 -8.99955
-5.19724 -3.35905 -12.1712
5.06222 -1.18356 -9.82672
2.62262 1.80196 -9.00003
-0.469858 1.30109 -6.99807
-0.45467 0.697801 -7.1916
3.39053 2.26979 -13.1983
2.68044 1.77833 -9.04833
1.87947 1.01632 -9.13199
-2.79731 2.37567 -8.1613
5.50065 3.8266 -12.2399
2.74168 -1.73915 -6.35558
2.77208 1.78997 -9.13449
3.02502 1.83778 -9.47584
-6.11185 -3.35462 -12.25
6.22236 -1.45719 -10.9333
0.359739 -0.798619 -6.98822
-0.641181 -0.976698 -7.55358
1.22773 2.88169 -9.45922
-4.94678 -3.57876 -9.66108
0.961418 1.39709 -6.49925
-4.29297 -1.03927 -8.63112
3.04887 1.8416 -9.52073
1.73492 0.890098 -8.91036
-0.412543 -2.72087 -7.59669
3.30129 -1.19065 -7.23953
1.89547 1.17213 -9.29759
4.14867 -0.051841 -12.469
3.34376 1.89872 -9.89392
2.75092 1.1412 -10.0145
2.51903 -3.53035 -9.78327
-7.71449 -3.17854 -13.3265
6.25989 -0.925569 -10.6703
-8.23077 -2.83963 -15.7291
3.38896 1.90159 -9.95725
0.405145 -1.45611 -7.17185
0.802552 1.42266 -6.48209
4.60379 -1.37731 -12.6766
3.27436 1.11142 -12.141
-1.04146 1.96652 -7.0131
-7.13572 -2.92727 -15.4236
1.93631 -2.54204 -9.42245
-0.219555 1.31299 -6.53298
1.0639 1.46253 -6.83916
-6.41443 -3.1186 -13.9606
1.25623 3.06037 -9.5105
2.41291 1.59896 -9.54393
-6.13679 -2.91062 -15.2953
1.23445 1.47507 -6.96138
1.26487 -2.19784 -8.53849
1.98107 0.0966406 -9.32771
1.26886 2.68702 -9.40239
0.528824 -1.82352 -7.11342
-7.19595 -3.43731 -10.7452
2.61423 -2.8713 -14.9682
0.79852 0.698614 -7.50122
-2.12103 1.59635 -7.44825
1.3422 1.47516 -7.13828
5.74681 -0.259324 -12.659
1.43202 1.44302 -7.47563
1.56236 1.52716 -7.4459
1.90236 1.602 -7.90481
-4.11432 -1.89166 -6.30449
-2.1996 1.65989 -7.49682
3.50644 -3.35785 -11.7529
4.40344 1.64264 -10.8412
1.48009 0.637569 -8.39029
3.39411 -3.83736 -9.00544
0.999697 -0.384168 -7.91652
4.90339 1.52395 -12.3051
4.96132 -1.10602 -9.51319
1.92546 1.59371 -7.93272
1.64122 1.23578 -8.71423
4.28188 1.22367 -12.9848
0.336558 -2.48557 -7.30734
2.12873 1.66349 -8.33887
3.12898 1.84921 -9.60737
0.453865 -0.501361 -7.1974
3.41859 1.89488 -9.98469
1.63585 1.11795 -8.27325
5.47879 1.60506 -12.5486
-7.19573 -3.45442 -10.6424
0.458084 1.39111 -6.31012
2.52295 -0.134171 -13.8345
-6.30403 -3.18439 -13.501
0.627015 1.39178 -6.35046
0.990434 2.03529 -7.48513
-3.99841 -3.5961 -9.83522
1.39 1.47731 -7.1942
-3.19107 -2.44671 -5.73498
-3.40025 0.44356 -7.76285
3.67848 1.12113 -11.8725
-1.41116 -0.857828 -8.05663
1.66607 1.54051 -7.60206
-5.10502 -3.49241 -10.1383
-5.63069 -3.49295 -10.3359
-0.278863 3.1575 -7.84614
1.7311 1.58506 -7.80662
-6.39921 -3.64391 -9.5374
1.97411 1.5996 -8.01283
2.29512 0.103066 -9.78162
1.99538 1.59571 -8.04394
-2.6719 1.53819 -7.79032
5.25107 -1.79492 -11.8088
2.22945 1.663 -8.40627
2.26063 1.6569 -8.44667
0.00876965 -1.34146 -7.13053
-4.87998 -3.76372 -8.87735
1.66532 0.771462 -8.74519
6.20416 2.85567 -9.72213
1.09605 1.37913 -6.68923
1.50468 -0.440066 -8.95956
2.45588 -0.8002 -10.0457
4.46107 -0.564014 -13.3886
-4.53314 -3.74205 -8.8838
1.66956 -2.29335 -9.16357
-2.14236 -1.10011 -8.62015
2.57952 0.478417 -10.0435
2.43773 1.7123 -8.69448
2.56515 1.72486 -8.8701
-6.38455 -3.42089 -11.1642
2.15627 -3.46871 -9.56817
2.63547 1.76155 -8.96507
-7.35158 -3.24529 -12.8945
2.9445 0.424913 -15.0162
2.93147 1.64492 -10.1239
-4.41431 -3.45333 -9.96541
1.54996 -0.560832 -9.03706
0.549778 0.159401 -7.14839
2.89978 1.78174 -9.29516
-6.74682 -3.50859 -10.3816
3.3477 1.83488 -11.9634
3.14699 1.85848 -9.63901
3.24974 1.85577 -9.73784
5.66502 0.886978 -13.5657
6.39988 1.36488 -12.0518
-3.08609 -3.68039 -8.76637
2.69493 0.101225 -10.2485
-4.04503 -1.75617 -6.23752
4.49156 2.05638 -11.1179
2.43436 0.998784 -12.9028
0.570732 -2.76948 -7.48838
0.49012 1.3042 -6.05703
1.98373 -0.625311 -9.37566
0.721666 1.32542 -6.11365
5.06689 -0.870582 -9.76647
-0.582951 -0.979696 -7.47998
2.7661 -1.45778 -10.3345
0.458267 1.35053 -6.30988
1.94161 1.11013 -8.94479
-5.979 -3.70574 -9.0761
0.0435617 0.736054 -6.56118
1.44801 0.240298 -8.47709
0.512493 1.3523 -6.34827
-7.46246 -3.1295 -13.7973
0.571678 1.38579 -6.37343
-6.7513 -3.54116 -10.1998
1.70172 0.274212 -8.87704
4.46504 -3.12689 -12.8409
1.06497 1.2854 -7.66978
0.673015 -0.746465 -7.45491
2.52803 -1.38364 -5.90294
1.41168 0.334987 -8.39163
0.824577 -1.34165 -7.78125
0.267337 -2.57043 -7.17915
0.734212 1.37462 -6.40191
4.77987 -3.30855 -11.7764
-1.84565 -1.10755 -8.41071
0.99145 1.35797 -6.53857
-2.01874 -0.920701 -8.50432
2.24595 0.155454 -9.6509
1.0856 1.40649 -6.67991
1.12193 1.45894 -6.93477
0.958632 3.24491 -9.68909
-0.700306 2.52515 -7.74092
-5.79175 -3.69846 -9.12472
2.77673 -3.38512 -10.4823
1.23248 1.41585 -6.94997
5.06019 -3.17155 -12.1545
1.55725 1.50959 -8.21019
-7.47972 -3.56412 -9.7416
-4.05211 -3.60979 -9.52673
2.772 1.70766 -12.0665
-7.47216 -3.17351 -13.6725
4.8946 -3.15152 -12.3159
1.39803 1.48208 -7.23752
6.25312 -2.06455 -11.1006
1.6192 1.52563 -7.52614
4.88631 1.20548 -12.1769
1.91674 1.44315 -8.84246
4.58656 -0.962889 -8.70874
5.18668 -3.40879 -11.2457
3.3977 -0.130565 -14.0362
1.69276 1.53803 -7.63322
2.67862 -1.36165 -6.19264
4.56193 -0.964171 -8.75994
1.63401 1.7802 -7.72746
1.72605 1.53906 -7.66819
-0.196432 -0.865165 -7.21808
1.72819 1.4954 -7.66472
1.7364 1.55863 -7.69184
6.74979 0.862604 -14.6992
2.44154 1.38389 -9.63538
0.831345 1.27119 -7.29402
1.19211 1.40285 -7.97115
-2.35778 -2.89296 -8.72859
2.07688 1.64375 -8.33514
3.46853 -3.4531 -10.6758
1.14283 1.05624 -8.24493
2.28647 1.66114 -8.47056
2.5812 1.72966 -8.9016
2.61255 1.7209 -8.93549
1.67666 -2.78865 -8.96537
2.26334 0.217542 -9.70655
1.8735 1.04885 -9.16378
2.94519 1.78322 -9.37341
2.67865 0.943697 -10.0393
1.97265 1.53225 -8.01158
4.38072 0.996338 -12.5707
2.9752 1.77877 -9.413
3.69665 -3.43361 -10.8025
0.94688 -1.69111 -7.89528
3.1375 1.85181 -9.77893
3.20054 1.84063 -9.76355
3.38148 2.42605 -10.0834
-8.09802 -3.04013 -14.3476
-1.12951 1.65688 -6.7614
-3.14559 -1.21696 -5.6428
0.784481 -0.322384 -7.63791
6.36555 -2.30335 -11.0241
0.981292 1.2387 -7.5624
0.600074 1.30854 -6.03702
4.16294 -1.39529 -8.52028
-7.13275 -3.10909 -14.0636
-2.26483 -1.82811 -5.02542
-4.04964 0.698939 -6.97383
0.829867 0.517814 -7.48308
-2.03202 -2.58141 -8.67938
0.871059 -1.63952 -7.79315
-1.03926 -0.0770063 -7.69616
0.695084 1.30998 -6.11276
0.554301 1.37135 -6.42381
-0.93346 2.55577 -7.54526
-4.95718 -3.47839 -11.1605
1.28729 -1.57795 -8.39691
0.727675 1.3796 -6.45495
5.47893 0.822328 -15.4367
0.755677 0.514964 -7.37701
1.74543 1.55871 -7.73948
-1.77995 0.398867 -8.10336
-6.39156 -3.14315 -13.7474
1.24729 -0.30596 -8.4458
3.63105 -1.07088 -12.8894
6.51011 -0.141397 -14.9379
2.04856 1.59135 -8.11494
-0.532761 0.337214 -7.23531
0.8842 0.101961 -7.66839
4.03481 0.28128 -12.8959
2.41257 1.66132 -8.63279
6.34657 -3.20436 -11.1829
3.10068 1.83908 -9.7863
3.28603 1.84447 -9.81848
3.34042 1.84348 -9.89066
-1.58767 -2.54441 -8.3792
2.50428 0.344476 -10.0056
4.09899 -1.40466 -8.34098
2.89929 -2.43092 -6.69419
1.24951 -3.05933 -8.3291
0.836799 0.0753598 -7.58479
-2.05581 1.10314 -8.438
-5.91735 -3.0895 -14.1169
2.50749 -0.446933 -10.1299
2.23089 -2.43523 -9.96507
1.09284 1.31053 -7.68575
1.58754 0.945966 -8.33877
0.496576 1.35513 -6.32673
-7.58025 -3.14937 -13.7366
1.32821 -0.444491 -8.71766
1.15125 -2.62779 -8.40538
1.90517 0.519108 -9.04428
0.5213 1.35842 -6.42052
1.78728 2.47639 -9.02542
1.87624 -2.90645 -9.21156
-1.32985 1.38934 -7.28876
-2.74493 0.713844 -7.72041
2.00366 0.159125 -9.36328
-1.89201 -3.44353 -8.45449
1.03761 1.3556 -6.60157
1.4101 0.934027 -8.34683
1.06397 1.36483 -6.64784
3.44323 -1.46341 -14.3428
2.36228 0.813791 -9.65854
-8.62375 -2.73978 -16.3778
1.30807 1.42279 -7.0672
-0.320788 -0.199202 -7.21471
2.2258 -0.378851 -9.67222
1.56223 1.4862 -7.40497
1.73735 1.55469 -7.7796
-2.0829 -1.82667 -8.44012
1.87804 1.55894 -7.8836
2.39994 -3.13436 -9.97584
0.34614 0.0411443 -6.83874
-2.08652 0.933173 -8.50681
-6.72569 -2.47345 -8.17636
2.39112 1.67576 -8.61517
3.52175 0.294555 -13.9456
3.14695 0.854011 -12.6517
2.39353 1.71106 -8.77636
6.61673 -0.807006 -10.548
2.71387 1.71169 -9.06929
2.28618 3.21478 -8.95035
-2.00881 -0.682268 -8.4755
3.0188 1.77937 -9.4747
5.29882 -1.28568 -10.1399
3.04631 1.78291 -9.51681
0.95135 0.590158 -7.65541
-3.1874 -2.0025 -5.76045
0.847575 -1.34206 -7.81184
4.05352 -3.28811 -12.0587
-4.49747 -3.46372 -11.5269
1.41736 2.69175 -9.26005
3.08273 1.77569 -9.54297
1.44123 -0.803614 -8.9013
3.42671 1.2696 -12.0826
0.921138 1.10071 -7.67294
1.59879 -1.91989 -4.72652
3.39563 1.83518 -9.94682
3.48783 1.89573 -10.1555
2.61804 0.214879 -10.1244
2.48102 -3.5278 -9.80027
1.74466 1.30349 -8.65054
2.18868 1.60334 -9.23312
4.90914 -2.08129 -9.60837
-0.284737 0.338671 -7.05715
1.61786 1.48296 -7.51644
2.02486 1.57668 -8.99977
-2.8519 -3.71198 -8.52973
-1.71082 0.818766 -8.05462
3.61896 1.76033 -12.3799
1.95857 1.54171 -7.97862
-2.01614 1.41982 -8.04938
-1.53376 -0.862975 -8.15526
4.05851 -3.27397 -11.9866
0.282729 -0.50339 -6.81907
2.07497 1.60288 -8.33784
-5.0207 -3.69566 -9.18101
2.18846 1.60573 -8.35977
0.793626 0.813199 -7.21792
-2.01715 1.35697 -8.09388
-5.39526 -3.46687 -10.4184
5.0437 -0.55109 -9.45884
3.68361 -1.22014 -12.8938
2.64317 1.60812 -9.85541
-11.1414 -2.45739 -18.0606
2.56475 -0.802164 -10.1667
2.66194 0.638372 -10.0812
3.54484 1.87488 -10.1822
4.23181 0.0381926 -12.4321
4.00394 -0.0348225 -12.9926
2.46999 -0.923847 -10.1007
2.00162 0.935502 -8.82789
2.00553 2.9218 -9.11323
1.17728 -0.365185 -8.19355
2.72447 -3.42441 -10.3738
0.436574 1.29552 -6.23887
1.69351 2.60419 -9.16407
0.907411 1.24775 -7.4516
2.05549 0.805133 -9.24869
5.34951 0.0961374 -13.0326
-3.16354 -1.53233 -5.57092
0.433438 1.30231 -6.29915
1.04397 1.37883 -6.72262
-4.81513 -3.48 -11.2705
-6.81538 -3.61118 -8.43825
-7.28235 -3.64945 -9.19671
1.38272 1.41226 -7.15166
-7.35244 -2.89434 -15.5998
3.62292 -0.362583 -14.1741
2.41662 0.866362 -9.78542
5.94331 0.934115 -12.5775
0.852874 1.11907 -7.37892
-6.4098 -3.68689 -8.8266
-2.30568 -2.85407 -8.70838
6.34305 -3.3704 -11.1868
1.67144 1.48984 -7.58958
1.82491 1.53566 -7.91209
1.99721 1.54082 -8.04513
2.8922 0.962117 -14.9079
0.461845 1.28255 -6.52266
0.346846 -2.76928 -7.25273
2.0875 1.60028 -8.39242
6.31263 -2.60039 -11.1537
2.38349 1.65274 -8.77141
1.30816 1.34872 -8.02044
1.57751 -2.23769 -8.99776
2.49424 1.5967 -9.65649
2.06204 -1.04172 -9.54031
2.31447 -0.747363 -13.4302
0.542768 0.896984 -7.21231
0.49712 -1.38899 -2.93736
2.40181 1.6827 -8.77918
-3.5737 1.46698 -7.12624
-5.53957 -3.75649 -8.816
2.48481 1.68664 -8.84424
2.61692 1.66428 -8.92685
2.12716 0.521499 -9.36118
2.63864 1.70212 -8.96726
-2.14074 1.34719 -8.19773
2.90387 1.71789 -9.30166
-2.14314 -1.34127 -8.63396
2.58069 -0.562296 -10.159
2.13083 -0.0835949 -9.54029
1.57994 0.860513 -8.57976
-6.96776 -3.2985 -12.379
1.01184 0.96882 -7.83077
5.44215 0.31714 -13.7065
1.19121 -2.19717 -8.43601
3.52271 1.87069 -10.1727
3.55808 1.85979 -10.1794
2.49096 0.157337 -10.0153
0.416684 0.926019 -6.80625
0.847392 1.13692 -7.54924
-2.61363 -3.37129 -8.93619
-6.27047 -3.58301 -9.79365
-1.867 -1.43667 -8.40787
2.43082 1.118 -9.96821
3.44757 1.77857 -10.1403
-1.58313 2.06699 -7.37096
-5.79946 -3.78807 -8.47011
0.650052 0.630191 -7.29918
0.45269 1.29951 -6.34505
4.7086 -3.55719 -10.8028
-6.8792 -3.61726 -8.71939
-7.77199 -3.29995 -11.9067
-6.73922 -3.24193 -13.1343
0.463945 1.33698 -6.43584
0.592401 1.35329 -6.51247
-0.973904 0.778537 -7.5983
-1.99642 -1.75522 -8.36023
0.937177 1.31675 -6.5316
-4.42037 -3.6319 -9.4192
4.86028 -3.0342 -13.0669
1.55904 -1.16993 -9.08231
1.02712 2.78779 -9.53807
0.936432 1.33289 -6.51829
0.986419 1.31031 -6.54952
-0.644284 0.722034 -7.23778
1.01794 1.33218 -6.56046
1.81035 0.583424 -8.89349
1.05071 1.37592 -6.88915
-1.4084 0.782091 -7.82219
2.8901 0.877263 -14.9387
-4.12458 0.750182 -7.99988
2.02718 1.54424 -8.07527
-3.16612 -1.6369 -5.70254
-7.04359 -3.46744 -10.6933
2.05903 1.53694 -8.10263
-6.7683 -3.27197 -12.8921
1.01886 0.229303 -7.82247
2.086 1.54672 -8.13775
-1.43071 -2.24475 -8.26155
2.92795 -1.31363 -6.42155
-4.2879 0.384944 -8.74264
2.34698 1.59931 -8.5379
1.08272 1.06181 -7.75213
4.17988 -2.30469 -8.68408
-1.21608 0.223327 -7.75309
2.58245 1.64899 -8.84239
-11.4815 -0.779472 -18.2889
2.63757 1.66076 -8.95622
-4.90806 -3.33799 -12.2494
2.66636 1.65968 -9.0003
2.74258 1.72468 -9.24897
2.46649 1.59338 -9.61124
-6.42896 -3.67552 -8.29509
2.85246 1.72362 -9.31199
2.95669 1.71597 -9.36458
3.32416 1.78083 -9.84228
1.75642 -1.15851 -9.14162
0.523375 -2.66494 -7.54425
4.28732 0.634517 -12.6441
-0.271406 1.35706 -6.22622
0.651695 -0.449019 -7.41228
5.25482 -0.332732 -11.4509
1.02818 1.30948 -6.56239
0.0942101 2.317 -6.59894
1.07917 1.38045 -6.89926
1.12154 1.38317 -6.97901
-2.18373 -0.861329 -8.60134
3.50937 0.813518 -12.3514
1.26826 1.37991 -6.98152
-3.46794 -3.66146 -8.99417
-0.528297 3.16469 -7.89533
1.29058 1.35871 -7.01963
0.0707467 -0.443899 -6.94287
5.41317 -0.89825 -10.1369
0.481895 1.06235 -6.50641
1.38365 1.44156 -7.3407
2.28782 1.89746 -8.67348
1.4341 -2.50047 -8.81037
2.40469 1.59286 -8.59366
-2.55608 -3.65661 -8.57456
1.19109 0.692135 -8.07666
-0.481664 2.62852 -7.77985
0.370439 -1.51964 -7.08083
2.98128 1.72011 -9.41024
-0.0934028 -1.14986 -7.15698
1.83193 1.56031 -8.66735
0.905777 1.35168 -7.39079
-5.95294 -3.2992 -12.69
3.03103 1.72186 -9.47254
-6.58689 -3.46659 -10.8065
2.24519 -3.028 -9.71657
-0.861442 -1.39711 -7.75086
-4.47522 -3.62557 -9.42641
-0.791841 2.2577 -7.52826
3.09909 1.79339 -9.78574
-0.274928 1.31351 -6.25027
5.27845 -1.68238 -11.7909
0.554841 -0.382424 -7.32285
-4.34604 -0.263939 -8.44987
0.554644 -2.47804 -7.55961
1.86452 0.738614 -8.95622
-11.3802 -0.803778 -18.4863
0.268087 1.28857 -6.23675
1.20915 -1.5338 -8.2862
1.30703 -0.152556 -8.3725
0.383265 1.2838 -6.19378
0.387454 1.28045 -6.24261
1.8731 -2.72046 -9.24815
-1.84343 1.42662 -7.6161
0.0639314 2.44395 -6.82053
-4.46601 -3.47462 -11.3517
2.69349 1.65382 -9.2601
-0.104626 -2.9382 -7.2888
2.3676 -0.0921473 -13.2016
0.618847 1.32111 -6.55641
-4.6518 -3.77809 -8.70133
-5.33462 -3.1556 -13.8982
2.84611 -3.46947 -10.1842
3.70017 -1.13037 -7.89658
2.54214 -1.57656 -10.0142
0.652406 0.213516 -7.29471
-4.81629 -0.573593 -9.45515
-0.211366 0.0357135 -7.08398
-1.70741 -0.622551 -8.23672
2.20088 -0.978196 -9.711
0.625975 1.31375 -6.57844
3.56284 -0.375543 -14.187
-1.73066 -2.84064 -8.32091
1.03282 1.35535 -7.5699
0.687848 1.34966 -6.64829
4.443 1.15058 -11.9917
1.93761 1.5433 -8.87539
0.921156 1.37901 -6.92254
1.86666 0.95596 -9.31691
-0.162438 2.16257 -7.11728
0.919153 1.35977 -6.95715
2.48543 -1.22142 -5.94553
-5.02059 -3.71794 -9.10402
3.87691 -1.08449 -8.13634
-1.53676 2.4416 -8.2364
0.667888 1.29849 -7.02773
4.34482 -3.00592 -13.379
4.57866 -3.36512 -11.515
5.2124 -0.842526 -10.1681
-0.626955 -1.58988 -7.56585
-1.51821 1.58149 -7.04052
1.87067 -1.46352 -9.24418
1.09689 1.38321 -6.99563
2.18134 0.336584 -9.54104
4.2688 -0.649732 -12.9333
2.61314 -1.63603 -10.1271
-5.80425 -3.28695 -12.7843
0.773722 -1.5729 -7.71702
1.22148 -1.40056 -8.6388
1.14484 1.38122 -6.98586
-5.85371 -3.43792 -11.2733
5.38584 -0.00651187 -12.9114
0.531143 1.16526 -6.92945
1.12691 0.333561 -7.95834
1.35212 1.35588 -7.07815
2.3445 1.36007 -9.49902
3.00682 0.155475 -14.9776
1.68093 1.46002 -7.58315
0.726196 -3.12558 -7.55974
-3.5937 1.22409 -8.4267
1.739 1.46267 -7.64861
0.977555 -2.94531 -7.90952
1.72631 1.50031 -7.83665
-0.0358852 1.29276 -6.70338
1.73901 1.49923 -7.84498
0.431673 1.78918 -6.4232
0.979043 -0.262608 -7.86233
-2.17201 1.22923 -8.38147
2.12879 1.12494 -12.9546
1.5657 0.893683 -8.82861
1.22874 -2.4812 -8.51368
0.370743 0.621256 -6.71726
5.46751 -0.203426 -12.9552
3.51467 2.19247 -13.1805
1.27807 1.43128 -7.92718
-3.25635 0.889772 -6.48517
2.74858 1.6652 -9.09904
3.78077 -3.40759 -11.2293
2.78611 1.71364 -9.36296
2.55211 -2.23328 -6.11392
0.14618 1.77202 -6.30201
-1.49098 0.653963 -7.88976
1.07327 1.25876 -7.7095
2.77146 -3.04573 -13.4436
-1.17177 0.215514 -7.72243
1.14415 0.580748 -7.92983
3.11989 1.72397 -9.55019
3.21704 1.77598 -9.84867
0.62048 2.98953 -7.24052
1.34863 1.45444 -7.52366
5.2684 0.273351 -11.2905
3.3965 1.78106 -9.9465
3.44975 -1.34473 -14.3294
6.16323 1.18925 -10.1524
2.3546 0.276393 -13.1122
-2.83821 2.619 -8.19904
-5.36847 -3.77488 -8.80418
3.48744 1.29391 -12.2291
2.30186 -2.72354 -9.84282
2.17226 -3.03247 -9.60122
-7.27995 -3.62059 -9.48103
3.40167 1.82312 -10.1181
4.52004 1.94195 -11.0014
1.58038 -1.5241 -4.69078
-0.097932 3.10139 -7.73945
-2.19217 2.53441 -8.23752
5.42813 -0.328115 -13.7378
3.92661 0.400673 -12.8346
0.730685 1.2564 -7.14671
3.98989 2.19698 -12.2471
-5.31619 -3.66221 -9.41291
2.17997 -1.50298 -5.4577
0.407819 1.2894 -6.42027
1.89217 0.700347 -8.99995
4.5906 1.72707 -13.2434
0.823083 1.3455 -6.82836
1.73797 -1.70165 -8.84058
2.44797 -2.58039 -10.1253
0.547477 -1.78452 -7.14586
-4.34752 -0.140243 -8.50393
1.03162 1.39004 -7.05595
2.22185 0.929278 -13.9665
1.37195 1.36964 -7.11944
-3.20485 -2.89619 -5.74107
2.34226 -0.320234 -13.2645
1.2694 1.43239 -7.43898
-4.20187 -1.04447 -8.7151
3.02388 1.61034 -9.43669
1.45118 -1.62436 -4.44626
-1.11617 1.35742 -7.09366
1.87066 -1.53735 -9.191
0.962208 3.57798 -9.9168
2.73361 1.65421 -9.594
0.396772 1.33735 -6.65451
0.753461 -0.442356 -7.55544
2.91171 1.66517 -10.0122
1.72259 1.5283 -8.57164
-8.44757 -3.34153 -11.7622
3.04268 -1.67705 -6.80146
1.28132 0.456454 -8.15841
1.28606 1.45223 -7.48617
2.26921 1.06025 -9.87598
-3.08169 2.05732 -8.13669
1.66553 1.42424 -7.54296
1.68979 1.41769 -7.56655
-1.93952 1.41731 -7.73457
1.77471 1.49768 -7.9396
-5.64743 -3.47119 -10.9435
1.221 1.13921 -8.16601
1.19812 1.24341 -7.87281
2.01573 1.48364 -8.03333
-3.98366 0.702155 -7.96348
2.20544 1.56638 -8.36772
2.03227 1.57826 -8.75153
-11.3321 0.00463088 -18.3696
3.94622 2.02518 -12.2912
2.24417 1.54822 -8.40889
-1.05716 -2.60081 -8.0403
3.08522 1.77923 -9.8346
1.17573 -2.7146 -8.28373
2.14156 -3.3916 -9.57942
-8.79154 -2.72782 -16.7889
3.07655 1.78121 -9.95637
-0.372241 -2.85455 -7.45954
2.73737 1.58036 -10.0034
-1.897 -1.4633 -8.44676
-1.57818 0.514906 -7.94373
0.281071 1.25276 -6.23008
-3.19616 -2.75743 -5.73144
0.380729 1.24989 -6.2505
-6.86471 -3.44896 -10.7965
0.438125 1.25754 -6.30243
0.396936 1.30605 -6.65452
6.81089 1.70987 -12.8291
2.41411 0.0991382 -13.1823
0.442635 1.34453 -6.71522
3.67537 -3.26873 -12.2989
6.22682 -0.522907 -15.1002
3.08461 -3.43194 -10.5686
0.542077 2.73902 -9.05648
-6.15973 -3.41778 -11.1287
0.724419 1.3219 -6.67603
0.732164 3.7198 -9.63438
0.749486 1.31805 -6.75633
2.84126 -0.690498 -14.9763
1.72413 1.46596 -8.56618
-6.81936 -3.49001 -10.6002
3.73109 -1.21474 -7.84401
3.70735 -1.03826 -12.8734
0.774135 1.33935 -6.75733
-5.49826 -3.70157 -9.10718
-0.522467 -1.34003 -7.48773
-0.00381291 2.57561 -7.29441
1.33094 1.42448 -7.55162
-7.37374 -3.37712 -11.448
4.46374 -0.983319 -12.7027
-4.49978 -3.50688 -10.5698
1.73798 1.44293 -7.61959
-5.47336 -3.01955 -15.0434
1.10725 0.937668 -8.21783
-6.90618 -3.35491 -11.4809
2.66149 -1.73925 -6.23233
1.9465 0.157755 -9.23836
0.722228 1.8113 -6.31945
1.75139 1.49554 -7.95594
-1.37146 1.5319 -6.93971
-6.19953 -3.71874 -8.82403
0.783171 1.1222 -7.28334
4.88462 -2.41583 -9.72346
1.98985 1.4743 -7.99466
-3.24082 -1.47992 -5.73753
3.19739 -1.23518 -7.07476
-1.41013 1.23992 -7.69559
2.19768 1.5516 -8.39996
2.36204 1.53926 -8.52173
1.57194 1.07425 -8.30806
-6.32138 -3.43227 -11.0876
2.36529 1.63753 -8.92056
0.274194 -2.0464 -6.85506
2.42051 0.271704 -13.1323
1.0997 -1.49479 -8.40779
0.022206 3.14264 -7.74434
2.92135 1.68549 -9.31256
-4.21767 -3.63676 -9.35791
4.28832 0.279596 -12.7184
-0.82379 -0.802846 -7.66411
3.04385 1.77775 -9.86836
6.18463 -0.922684 -10.7881
1.96565 0.455391 -9.1585
3.15343 1.79396 -9.91154
2.62719 -1.37058 -6.18099
-6.80383 -3.52103 -10.3359
3.4983 1.78422 -10.1537
0.445862 1.30245 -6.716
0.607602 1.08074 -7.02576
0.78263 -1.14528 -7.69145
-2.63091 -3.62744 -8.88335
7.19988 1.89576 -13.013
-1.49403 2.99829 -8.67317
2.40618 1.55017 -8.56574
-0.67618 0.0465139 -7.40227
2.61492 1.58756 -8.92041
2.66131 1.59221 -8.94055
-2.08247 0.81354 -8.33757
2.68267 1.60282 -8.98443
2.70308 1.63708 -9.02342
6.94949 2.02117 -12.8361
3.04531 1.7629 -10.0234
1.32116 -1.86169 -8.2754
-7.17015 -3.60412 -9.62795
-2.01322 -1.09909 -8.51216
0.368173 0.868726 -6.91716
2.78137 1.67995 -9.38183
0.678403 -1.04069 -7.49066
3.02492 1.76524 -9.91575
-1.04059 0.421909 -7.50189
-2.98571 1.89426 -8.13428
3.03843 1.77102 -9.93921
-2.68132 -3.38058 -8.9931
3.70733 -1.69839 -13.0368
3.07372 1.79098 -10.0185
3.50907 1.16922 -12.1692
-4.51955 -3.47029 -9.97646
3.37275 1.79112 -10.1071
4.07551 -1.13645 -8.24424
0.455187 1.23626 -6.47957
2.05126 1.41586 -9.0756
0.422846 1.29098 -6.68342
0.472493 1.30009 -6.75539
-0.552482 0.520402 -7.22286
0.496484 1.29992 -6.78454
0.814757 1.35784 -7.25741
1.30288 -1.40257 -8.75517
3.62627 -3.18524 -12.5966
1.33056 1.31854 -7.05497
-1.89804 0.720787 -8.20013
1.05441 1.41297 -7.61889
2.46579 -1.43873 -5.83957
-7.52646 -3.64419 -9.18303
6.45092 -0.0236165 -12.9839
-4.82612 -0.574446 -9.42026
-6.31528 -3.14333 -13.9059
2.1718 -0.556317 -9.61381
0.427237 0.159034 -6.96906
1.59118 1.40081 -7.49014
3.89097 -3.43083 -11.0393
1.47045 0.579475 -8.38491
-5.4979 -3.36292 -12.126
-2.1981 -1.28057 -8.65128
2.02225 -1.83086 -9.4147
-2.42781 -1.86433 -5.07141
2.74069 1.60396 -9.04616
-2.18639 1.17771 -8.38076
2.72105 1.6607 -9.30787
-1.59214 -0.682173 -8.17465
2.75002 1.67691 -9.37238
-6.28487 -3.37599 -11.8238
1.84341 -2.90166 -9.16573
-2.11516 1.42721 -7.38854
2.74116 1.68375 -9.39237
-3.56936 1.22897 -8.47416
-7.54381 -3.14858 -13.3873
3.04782 1.66607 -9.46321
2.23913 2.04117 -8.73361
1.61435 1.39297 -8.42962
4.51016 -0.503336 -12.4541
2.06808 -1.48651 -5.28205
-1.236 1.35314 -7.18273
-8.78997 -2.94044 -14.9207
2.9904 1.75603 -9.92184
1.39826 1.8168 -7.21109
3.36774 1.73728 -9.90124
-4.51995 -3.72047 -9.07085
4.0381 -3.48225 -10.7405
3.33614 1.77026 -10.1199
-1.89715 0.339353 -8.21215
-0.341215 1.25734 -6.29985
-0.644068 -0.499681 -7.51066
0.920817 -0.676801 -7.86413
-6.75385 -3.393 -11.2299
2.60625 -3.11556 -13.2542
1.99947 -1.8823 -5.3528
0.54547 1.29777 -6.85453
0.331914 0.876847 -6.35205
0.575044 1.30112 -6.89424
2.49931 -1.5219 -9.95127
-0.206116 0.915348 -7.11692
-5.2146 -3.07292 -14.76
4.52879 -2.96544 -9.29237
0.579231 1.34172 -6.90061
-0.514871 3.63529 -7.91625
0.670309 1.33732 -7.02712
1.34939 1.17586 -8.21907
0.738842 1.34657 -7.13816
0.868518 1.39414 -7.30675
1.59249 1.38162 -7.52424
1.54705 1.10219 -8.80533
1.64502 1.38115 -7.52124
1.34916 1.46655 -8.03527
2.61604 -0.382277 -10.1971
4.04554 -0.199265 -13.0175
1.40309 1.48237 -8.10582
1.95523 1.43687 -7.99003
3.01569 1.02349 -11.7266
1.6616 1.53981 -8.49974
2.40183 1.52913 -8.54772
1.03815 0.220413 -7.85242
2.69307 1.68179 -9.42647
3.26441 1.74164 -9.89752
3.93265 1.41717 -12.5317
-7.2933 -3.24313 -12.7622
-5.86579 -2.91563 -7.65464
-1.80481 -2.0977 -8.47899
0.883952 1.35627 -7.36499
1.03349 1.41665 -7.57579
-3.20472 -1.09153 -5.5514
2.33073 0.572198 -9.64039
-3.34345 0.729266 -7.8936
1.12382 1.41143 -7.72412
1.51792 1.48985 -8.24117
1.30093 -0.194058 -8.37906
4.52647 -3.22361 -12.1984
1.48592 -1.52037 -8.67979
3.62762 -0.557526 -12.7121
1.29431 1.46243 -7.96059
-0.570921 0.935298 -7.00944
1.45125 1.48264 -8.17205
1.4801 1.47762 -8.21883
2.5882 1.59611 -9.78147
2.00547 1.42757 -8.02082
3.15058 -3.16259 -12.7212
5.83687 1.64179 -12.4081
5.44942 0.78335 -15.4432
-3.52543 1.39488 -7.09065
1.94919 1.53909 -8.50065
1.83849 1.57798 -8.72079
1.59428 0.0413409 -8.76241
2.78458 -0.477065 -14.9044
-2.15876 2.38582 -8.24459
-0.0349708 2.91535 -7.62426
-0.103797 -0.0230196 -7.0141
2.71273 1.66682 -9.54056
3.98072 2.08899 -12.2559
-2.13005 -3.0825 -8.58093
0.409988 1.24961 -6.65269
4.20627 -1.3763 -8.48359
1.80744 -0.918555 -9.1873
-6.35053 -3.5017 -10.3798
0.424247 1.24129 -6.67379
4.22477 -0.375719 -12.8449
0.97842 1.35829 -7.49865
1.24387 1.41846 -7.90356
2.44834 -1.6356 -9.88019
-0.608082 0.981706 -6.97954
2.89757 1.26417 -10.1301
0.498558 0.994087 -6.88369
0.505442 -2.36321 -7.4904
2.04279 1.43693 -8.03063
1.84881 1.57268 -8.75204
-2.09584 1.0814 -8.41683
-6.06417 -3.48126 -10.5948
-1.52586 -3.362 -8.17051
2.36289 0.276049 -9.83891
1.70805 -0.861306 -9.1175
2.28136 -0.736062 -9.80722
2.66823 1.55149 -8.95284
0.766718 1.29631 -7.18515
2.5176 1.42795 -9.74539
3.07303 2.21971 -9.61208
3.12222 1.74468 -10.088
-5.85891 -3.76541 -8.51785
0.779695 1.2633 -7.21714
1.91069 0.635422 -9.0338
3.19544 1.73701 -10.1145
-3.58216 -3.60153 -9.77496
-6.38008 -3.49134 -10.5649
5.1246 -1.40376 -13.9461
3.92866 2.18784 -12.8218
2.19967 1.19919 -9.31807
-6.48692 -3.57497 -8.16658
-1.11853 1.06181 -7.48907
-1.36258 1.36614 -6.90748
-4.01722 -3.51962 -10.8736
1.88353 2.57003 -9.15555
5.07675 0.109787 -15.7934
-2.83637 1.72248 -7.88193
0.442117 1.22184 -6.60217
-6.91385 -3.22423 -13.0106
4.74136 0.94905 -12.1991
0.878539 0.697636 -7.61845
5.51386 -0.833656 -10.2888
0.718492 1.3083 -7.10292
3.58029 -0.431071 -12.6589
1.2034 1.41616 -7.81906
-11.4212 -1.77079 -18.3857
-5.54986 -3.46338 -10.4316
-4.63491 -3.532 -10.1211
-6.62226 -3.62357 -9.69569
1.30117 1.4263 -7.98141
-0.26728 1.60624 -6.18516
1.46222 -1.81568 -8.46555
1.81663 1.53223 -8.70042
1.36242 0.45694 -8.27146
-0.615328 -1.4886 -7.57383
2.36705 1.46206 -8.52923
1.95921 -0.924496 -9.35159
2.11146 1.58998 -9.13198
-1.79411 2.23281 -8.16673
3.72114 1.85385 -12.5027
1.9669 -0.623316 -9.34427
1.54645 1.48136 -8.31925
2.32577 -2.94086 -9.87818
7.02873 2.31611 -12.8452
1.78132 0.885411 -8.92557
-2.53712 3.05581 -8.26663
2.17603 0.21776 -9.54526
-2.42918 2.6261 -8.27251
2.13796 1.59474 -9.18243
0.191748 -0.623567 -6.87703
1.89139 0.876097 -9.06065
1.11273 -2.63734 -8.32566
1.41021 -1.47494 -8.62967
5.00628 -3.18121 -12.1572
2.66718 1.53638 -8.97335
2.71171 1.55642 -8.99869
2.98535 1.61938 -9.42967
1.46924 2.02125 -7.84971
2.84449 1.73442 -10.0654
3.08628 1.7282 -10.0771
0.759689 -2.20191 -7.83223
0.186426 1.33451 -6.5232
2.44411 -0.204985 -10.0028
3.7024 0.807827 -12.6089
-3.46102 -3.60562 -9.59691
3.13554 1.74933 -10.1197
1.88356 -1.935 -9.26676
3.98042 2.07778 -12.2754
-2.30098 0.0347241 -8.54134
4.74268 1.89947 -11.4313
2.17764 -1.57794 -9.48055
-1.3525 1.35856 -6.93356
1.62479 1.41895 -8.42412
3.49129 -3.02032 -13.6158
2.49851 -0.201451 -10.0768
0.341747 1.18214 -6.40989
0.425547 1.18031 -6.43833
-0.598577 -1.68339 -7.53195
-2.65193 -1.4504 -6.99984
1.96651 1.18046 -8.94914
-1.72669 -2.24199 -8.44679
1.94595 1.48064 -8.6966
1.22959 0.813334 -7.74133
-2.30947 -1.81814 -8.58939
0.502159 -2.60013 -7.50693
3.45071 1.51624 -11.9589
0.963602 1.33703 -7.45709
-0.652651 3.21985 -7.95434
0.451068 1.18222 -6.48142
4.07276 -1.39286 -12.8058
2.4574 -1.90326 -10.2359
2.43009 1.04955 -10.0202
0.350505 -1.51742 -7.05372
0.521179 1.23619 -6.82364
1.85833 -1.80918 -4.9423
6.66368 -1.02303 -14.9202
0.543386 1.24519 -6.85213
2.28782 1.60099 -9.37837
0.596863 1.30395 -6.92418
1.05915 1.36186 -7.61623
-1.59091 0.690924 -7.97223
5.96689 2.85449 -9.83478
0.817945 -1.94505 -7.55746
0.832989 -0.993181 -7.77254
2.2772 -3.60791 -9.18694
1.77114 1.52306 -8.63863
-7.13654 -3.35615 -11.4811
1.99437 1.5747 -8.95387
2.09145 1.59346 -9.10279
-0.0887842 1.0416 -6.94177
3.2355 -1.2625 -6.97429
3.12109 1.59067 -9.34501
3.05497 1.61701 -9.45014
3.11069 1.73218 -10.1406
-6.42443 -3.34512 -12.032
-2.00447 -0.980841 -8.47602
0.447981 -0.677288 -7.20294
4.02032 2.07077 -12.2822
0.242908 -0.0746007 -6.7483
2.54468 -0.0205337 -10.0787
3.90859 2.15487 -12.8041
-0.87723 1.30026 -6.59911
-5.6869 -3.57589 -9.77374
1.87673 0.517504 -8.99844
0.315438 1.17195 -6.38257
-4.0384 1.00065 -8.16863
4.1716 1.66341 -12.5476
0.471779 1.17429 -6.5364
0.613925 1.24481 -6.96159
-1.11052 0.515724 -7.61468
0.840661 1.31201 -7.28147
1.15304 -1.03866 -8.51208
0.366732 1.13036 -6.67585
1.07943 1.35281 -7.639
1.10696 1.35581 -7.68084
4.55028 2.76573 -12.7218
0.737575 0.748456 -7.43316
1.15303 1.35794 -7.74429
1.69647 1.48268 -8.52331
0.435457 -0.135301 -7.03076
2.30505 -1.76828 -5.75433
3.2101 -0.123975 -14.0693
1.96428 1.54071 -8.93077
4.94511 -3.0654 -13.3294
2.76654 1.65989 -9.64071
0.628804 0.883444 -7.27067
5.37559 -1.17966 -10.0566
-7.5093 -3.65764 -9.04637
2.67564 1.69931 -9.93147
0.741553 -2.69704 -7.85469
-7.93015 -3.20763 -12.7181
6.48584 1.30121 -10.0176
-6.69656 -3.39951 -11.2283
2.84041 1.70187 -10.0039
3.41276 -3.37646 -11.5744
1.40076 -2.36809 -8.75324
1.76692 -3.63855 -8.89072
2.36466 -1.80521 -5.81635
2.94691 1.70585 -10.017
0.3136 -0.900478 -6.8622
3.74027 -3.73259 -9.54056
1.38963 -1.61523 -8.50568
2.15635 0.359575 -9.49658
-11.424 -0.374865 -18.3385
0.440489 -2.67219 -7.43466
2.97118 1.69941 -10.0668
-2.7305 1.99333 -7.80422
5.29998 -1.41319 -13.2771
0.705284 -2.53061 -7.77529
3.13995 1.73144 -10.1746
1.14265 0.996828 -8.06229
0.595578 1.25564 -6.92561
3.21035 2.23121 -9.65109
0.905211 1.29957 -7.39094
6.37233 2.1415 -9.87482
-1.07112 1.87866 -6.9493
5.14001 -0.854737 -9.93235
6.34084 -0.194836 -15.0499
2.33612 0.627564 -9.62768
0.445734 1.11707 -6.47675
0.930647 1.29792 -7.43496
-1.55744 1.87318 -7.2173
3.00952 -3.00789 -13.9255
1.17714 1.35461 -7.79674
2.05407 -1.51001 -5.27738
-4.6613 -0.500049 -8.71206
1.21731 1.36017 -7.86109
1.74629 1.48155 -8.59076
2.95248 0.631717 -15.0482
-2.2393 0.213347 -8.4846
0.781527 -1.07866 -7.63635
0.988007 -2.53723 -8.21977
1.82383 1.47914 -8.69784
-4.42939 -2.81398 -12.1031
2.68741 0.0327987 -10.1885
4.81962 1.83661 -11.7779
0.877148 0.517098 -7.55579
2.06776 1.53675 -9.05327
2.04301 1.54149 -9.01883
1.29871 -0.681527 -8.69068
2.08541 1.54911 -9.09664
2.31819 1.59656 -9.41642
2.44466 1.63788 -9.60562
1.63456 -3.14368 -8.82804
-8.06922 -3.25901 -12.2967
0.625431 -1.74934 -7.3791
2.48665 1.6415 -9.65907
4.57728 1.0686 -13.2856
2.52958 1.64654 -9.72614
-5.93087 -3.39657 -11.9983
1.31245 0.711129 -8.254
-1.40614 -1.65527 -8.05671
2.56525 1.65425 -9.76293
-1.20349 0.732669 -7.71224
3.08403 -3.51543 -10.0116
1.87804 1.4816 -8.75169
1.1613 1.06829 -8.144
2.68672 1.66512 -9.93138
4.05954 -3.68422 -9.90558
-5.42067 -3.64219 -9.53025
4.9448 -1.09559 -9.50009
3.10216 1.71511 -10.1824
5.22452 -1.26114 -9.97056
3.98085 2.02154 -12.2883
0.148668 -0.201735 -6.84151
-0.374803 0.522343 -7.09801
-3.58029 1.42354 -7.09007
2.25506 0.104728 -14.0164
-1.27325 -0.825335 -7.93952
0.392559 1.17706 -6.42509
0.39084 1.17761 -6.66399
-2.2045 -1.88398 -8.56934
2.38243 -0.554664 -9.94286
3.98286 0.763932 -12.7195
1.63992 0.22069 -8.83009
1.8262 -2.78383 -9.18195
-0.686412 1.25027 -7.15512
6.52481 0.560263 -14.8328
0.474419 1.22088 -6.7545
2.12202 -2.50918 -9.68088
-2.11644 -0.966277 -8.53996
0.482395 1.02015 -6.93505
-2.01897 3.1712 -9.01291
-1.10244 -0.136769 -7.75274
0.714003 1.26946 -7.11209
-5.44238 -3.4445 -11.0689
4.09964 -1.32241 -12.7955
-0.0658456 1.70775 -6.02849
1.54488 1.11571 -8.653
0.841492 -1.39503 -7.82086
4.04387 -3.43624 -11.2097
-6.30675 -3.27427 -12.732
0.972974 1.30457 -7.49999
-2.44037 -0.138876 -8.62068
1.03121 1.31546 -7.57388
0.84207 0.810218 -7.27256
1.2001 1.35954 -7.82455
1.23704 1.35131 -7.91236
2.3534 -1.6925 -9.70832
1.23581 1.40983 -8.02752
5.39688 -0.044906 -12.9493
-0.982237 3.15665 -8.27638
1.59336 1.41007 -8.39653
1.87816 -3.13762 -9.18229
1.80167 1.47656 -8.66471
1.8456 1.47495 -8.74194
4.71271 1.14043 -12.0847
0.495626 0.639845 -7.07894
-6.66112 -3.60738 -9.87652
1.03424 -0.316978 -7.97555
1.92051 1.51533 -8.82654
1.83087 -0.682664 -9.17991
-3.92794 0.837062 -7.96501
4.6669 0.87374 -12.051
2.43929 1.61203 -9.58584
3.14059 -3.55861 -9.84
2.63011 1.66734 -9.87282
1.84125 1.09788 -9.25859
3.78311 2.0554 -12.6835
0.878072 0.749522 -7.66342
6.06015 -3.34086 -10.596
2.79161 1.3657 -9.95286
-3.57293 -3.52276 -10.9868
-4.61389 -0.199609 -8.65156
-0.0344552 2.79372 -7.55898
-7.28709 -3.04723 -14.6885
0.827392 -0.382172 -7.7185
2.92633 1.66123 -10.0844
-3.68177 0.697388 -7.98202
-7.04801 -3.07631 -14.2585
-8.34042 -3.31156 -11.9954
-5.66853 -3.43256 -11.2961
-5.10902 -3.49513 -11.0198
3.68147 -0.618338 -12.7551
0.40576 0.335171 -6.87764
-5.87975 -3.57722 -9.68044
1.68769 0.0358429 -8.89199
0.380782 1.12106 -6.43028
-5.7429 -3.27952 -12.8501
1.4862 -1.04259 -8.97909
-3.57183 0.611209 -7.80065
-7.65632 -3.65303 -9.25846
0.367236 -0.075304 -6.91836
-3.20851 -3.6123 -9.11608
0.426534 1.13244 -6.44454
-1.54313 -2.83853 -8.204
2.23851 -1.10054 -9.77581
-2.49914 1.29909 -8.41696
0.484258 1.19901 -6.79376
6.43644 -0.636126 -15.0207
0.743026 1.2354 -7.19999
0.784949 -0.263083 -7.63355
-3.07731 -3.68515 -8.68353
-6.56514 -3.3617 -11.5733
0.102678 -0.972998 -6.97732
1.64025 1.41843 -8.45159
-1.0941 2.25659 -7.69437
0.991718 -1.9571 -7.86642
4.7596 -3.41645 -11.3597
6.44801 -0.752893 -15.0628
2.72483 0.995832 -10.2611
4.40415 -0.998082 -8.81897
1.15504 -1.10109 -8.52048
-2.44259 1.65625 -7.67518
1.91256 1.4836 -8.71987
1.32071 -3.06514 -8.42658
-7.32459 -3.67135 -9.0587
-5.2292 -3.22442 -13.433
1.52104 1.90067 -7.78999
1.45053 0.283465 -8.4585
1.90096 1.47992 -8.82319
-0.700331 -2.95285 -7.61529
-2.55972 1.94794 -7.92066
2.19395 1.53155 -9.23369
2.23872 1.53717 -9.30378
1.64612 2.68557 -9.28329
1.42916 0.516779 -8.37544
-2.80073 2.85476 -8.22626
4.28649 -3.34502 -11.5857
2.51294 1.62988 -9.69314
2.2707 -2.06462 -10.015
2.92512 -1.34686 -6.53303
2.54204 1.59881 -9.72195
-7.16897 -2.9668 -15.3157
6.10503 0.154697 -10.4882
2.84864 0.938573 -14.9337
2.07129 1.31695 -9.1689
4.87145 -3.207 -12.0525
2.58517 1.64183 -9.79363
2.62126 -1.70392 -6.16277
0.81412 1.23874 -7.3142
1.91715 1.47037 -8.74893
2.20119 -1.0447 -9.71548
2.26818 1.53466 -9.34971
2.31602 1.53704 -9.41228
0.930319 2.61418 -8.95392
-8.26414 -2.78425 -15.9663
0.446198 2.39149 -7.26469
1.27801 -1.28436 -8.70494
-5.42233 -3.62088 -9.59291
2.56572 1.5988 -9.75251
2.73437 -0.628964 -10.2734
-5.68549 -3.4667 -10.9758
2.6416 1.63536 -9.84569
3.34175 1.95607 -11.9847
3.39204 1.95104 -12.0326
1.1692 0.277482 -8.03498
2.66144 1.90021 -9.10132
1.3918 2.33347 -8.61271
0.610437 1.18241 -7.02539
-0.716028 0.982168 -7.53824
-1.74598 3.01632 -8.78398
0.761736 1.22337 -7.24811
-2.49465 0.879631 -7.89165
2.59143 -1.76016 -6.12944
0.949613 1.27691 -7.48996
1.82781 -1.84074 -4.98274
1.27712 1.34414 -7.92796
3.01874 0.384871 -15.0199
4.13693 -1.42638 -8.35909
-3.64061 -3.70328 -8.93098
1.28669 1.34517 -7.98285
0.742021 0.573936 -7.37597
-2.55727 2.85754 -8.2251
1.34999 1.3502 -8.10834
-2.6418 -3.15776 -8.93828
2.36498 1.54126 -9.47651
-11.4262 0.866353 -18.0729
-0.261959 -1.45739 -7.33664
2.51827 1.59049 -9.68102
2.71819 -3.49718 -9.7739
0.548158 -1.04547 -7.33622
5.71169 -0.934397 -12.7018
-6.72946 -2.15536 -8.19277
3.79192 -3.05153 -13.284
-7.5291 -3.38129 -11.4474
-1.40047 2.32072 -7.93218
0.405315 1.10467 -6.45087
-4.22399 -3.50091 -11.0302
3.40987 1.59152 -12.0124
1.47709 -0.213717 -8.76125
0.586298 1.17474 -7.00205
1.0282 2.60356 -8.94779
2.60746 -3.0817 -13.5016
2.43774 -2.6595 -10.0757
-2.44909 1.44212 -7.69761
0.637989 1.17299 -7.07368
-7.18013 -3.3028 -11.8931
0.659902 1.19651 -7.09854
-4.09743 -3.24276 -6.46555
0.708467 1.21365 -7.1753
0.411734 0.827481 -6.78225
4.40114 0.688947 -12.101
-3.19045 2.79606 -8.18946
3.27952 -3.41488 -10.871
-11.5007 -1.39944 -18.1714
1.1577 1.30116 -7.80772
1.07979 -1.22398 -8.4238
1.47799 1.35582 -8.26873
-2.23088 2.37127 -8.252
-0.0394678 -1.16362 -7.12709
-4.4518 -3.50249 -10.6197
2.12687 1.47762 -9.179
1.11694 0.394929 -7.9103
2.16775 1.1534 -12.9403
2.34308 1.53553 -9.43621
-7.52998 -3.36586 -11.5288
3.55799 -2.95106 -13.8595
-0.399313 -0.385343 -7.30494
0.647215 -1.7092 -7.47958
-0.225422 0.689558 -7.06941
2.43584 1.53692 -9.58898
0.877599 -1.8225 -7.61226
2.36503 1.21802 -9.94797
-6.57852 -3.26363 -12.6643
2.88838 1.59618 -9.97046
1.76287 -3.02777 -9.06122
-0.570652 3.40096 -7.88236
0.894116 -0.0106924 -7.77323
4.25267 1.11398 -11.9289
-3.07017 -3.65191 -8.91033
4.80302 1.79016 -11.3691
5.19043 0.997723 -11.1751
0.285457 1.11967 -6.38391
-5.36688 -3.67135 -9.36737
0.254534 1.12035 -6.40264
5.98834 2.44992 -10.1255
2.40222 -1.80691 -5.84296
2.44822 -1.43586 -10.0611
0.430437 -1.15968 -7.15309
-0.736481 -0.873467 -7.58215
0.435034 1.11456 -6.77743
2.37284 0.0402323 -13.1784
0.825225 1.2243 -7.35762
-11.3697 -2.35433 -18.3757
1.00775 1.27328 -7.60409
1.18243 1.29187 -7.84583
2.59087 1.29951 -9.89271
1.2314 1.29771 -7.92266
-6.45498 -3.39131 -11.461
1.56275 -3.09127 -8.72412
1.50771 1.37085 -8.29916
1.82551 1.41588 -8.75984
-2.5998 -1.58497 -8.82538
-6.52539 -3.06483 -14.3094
2.35075 1.38712 -8.54371
1.62157 2.10846 -8.38771
2.17559 1.48153 -9.24483
-0.907665 -1.73932 -7.5873
2.38572 1.52762 -9.51664
1.13716 -2.91967 -8.12621
-1.77173 -1.94762 -8.27544
-1.17988 -1.0466 -7.90833
1.38203 -0.140025 -8.46775
-2.13299 2.32077 -8.26171
2.46349 1.55416 -9.61228
4.02614 1.94796 -12.3356
1.86512 0.299839 -9.08117
-5.99277 -3.19399 -13.3872
-6.0846 -3.05752 -14.4127
4.34062 1.6444 -10.9186
1.2675 0.766835 -8.17344
2.80498 0.399368 -14.9396
1.55901 -2.32259 -8.96455
0.268183 1.0571 -6.3817
-7.58418 -3.42789 -10.9225
0.338756 1.06441 -6.40726
-3.3528 -3.59949 -9.72419
3.33891 -0.863197 -14.087
0.371934 1.06154 -6.43188
0.448939 1.05813 -6.47456
1.47952 0.717768 -8.4536
1.67109 1.17916 -8.3169
3.62819 -0.493302 -14.2034
2.29104 -1.78806 -9.80824
-4.74876 -0.760297 -8.85225
4.46153 -0.499171 -13.4096
3.48178 -3.4061 -10.9944
0.351904 1.122 -6.673
4.50811 -1.4007 -12.6823
5.70535 -0.614032 -12.6914
3.28429 0.908942 -12.053
0.0599231 0.390575 -6.81232
1.77 -1.55519 -9.04723
-1.88896 -0.856068 -8.40585
0.462302 1.12157 -6.82536
0.728324 1.17838 -7.20962
0.756394 1.18289 -7.2584
0.671786 -0.261443 -7.39766
-7.36287 -2.9232 -15.4883
-2.78307 -3.69668 -8.54079
-1.70372 -1.52108 -8.29639
2.5453 -0.268095 -10.1165
1.01075 1.23625 -7.59999
1.88683 0.818059 -9.05904
2.69474 0.652029 -10.1096
1.05388 1.23401 -7.67799
0.204467 0.515613 -6.67915
-2.08658 2.73317 -8.30106
1.32643 1.29637 -8.04756
1.14798 -2.22242 -8.35695
6.01919 1.78017 -10.1954
1.35177 1.29941 -8.10009
-5.79689 -3.69706 -9.16842
1.40215 1.35076 -8.16531
-2.06211 1.84227 -7.60993
4.35396 -3.60135 -10.573
1.4271 1.35304 -8.19999
-2.09542 1.77604 -7.56259
-5.72157 -3.65081 -7.70816
1.60426 1.35609 -8.44827
0.0234733 -1.5212 -7.13541
1.62689 1.36732 -8.47508
5.79033 -0.264258 -12.6453
6.4414 -1.76279 -10.8047
1.67477 1.39768 -8.55296
-6.57797 -3.68351 -8.29297
