ply
format ascii 1.0
comment Created by Open3D
element vertex 1869
property double x
property double y
property double z
end_header
0.308334 5.41082 -9.44777
2.68075 1.79764 -8.20984
0.296966 5.39473 -9.56426
6.68725 -1.44502 -6.58242
4.63637 -3.11819 -12.8168
0.366906 5.38412 -9.62728
2.81661 5.11289 -12.5237
0.491352 5.23279 -9.70911
0.848561 4.91547 -10.0576
5.01941 -4.78658 -12.8224
2.32257 -0.698153 -7.55178
2.81408 -1.09244 -8.021
2.84421 -1.15083 -8.05896
3.1544 -1.37293 -8.39276
6.57942 -5.27877 -11.5087
5.62726 -4.24318 -12.2315
4.8316 -4.61509 -8.69227
7.86652 -4.62419 -8.54406
3.94957 0.0733173 -5.40164
3.16305 -3.06529 -6.8581
4.52415 -0.018173 -4.52827
8.92834 -6.02128 -12.3074
3.34009 -3.13326 -6.95426
1.25622 4.56353 -10.3505
3.33666 -3.20122 -6.99008
1.71456 -1.09423 -8.42474
4.09855 -3.82271 -11.9906
3.36559 -3.16487 -7.04792
3.88422 6.73674 -14.2104
3.44056 -3.28039 -7.08489
1.29673 4.4306 -10.3804
1.47685 -0.689368 -7.97959
3.44844 -3.32319 -7.11649
2.18979 -0.736996 -8.10154
2.86242 6.31054 -12.8449
3.69952 -3.53884 -7.40799
1.62197 3.21213 -10.5622
5.98367 11.8038 -17.3577
3.72368 -3.50246 -7.41979
2.61731 0.54293 -7.348
3.84671 -3.65292 -7.56317
4.00923 -3.75256 -7.7057
4.13522 -3.89291 -7.76959
0.937857 3.08591 -6.04549
4.31986 -0.0764589 -4.69039
4.29789 -4.03282 -8.01501
3.89995 -6.25781 -11.3449
4.32975 -4.07139 -8.03662
5.15888 2.72953 -5.70015
7.77624 -1.26642 -6.2387
4.34631 -4.09439 -8.09427
4.52577 -4.16499 -8.22654
8.58934 -5.28698 -9.67852
1.54061 4.2468 -10.6439
4.50063 -4.25093 -8.19308
6.85772 -4.71415 -9.59366
4.86375 -4.48716 -8.54512
1.60367 1.45747 -8.79758
4.90002 -4.61587 -8.66154
2.91093 -1.28858 -8.66962
1.66262 7.7498 -11.5571
5.04296 -4.67347 -8.776
2.37662 -2.82425 -10.123
5.20429 -4.77875 -8.94878
2.68284 -2.17364 -9.97324
0.0412199 3.81287 -7.53138
0.209907 5.40787 -9.30984
2.15853 7.16672 -12.1026
0.215231 5.37989 -9.31911
3.80531 -1.98284 -9.43312
2.29209 1.83771 -8.6988
0.338499 5.32219 -9.54009
0.531184 5.17523 -9.77557
0.595262 5.12721 -9.79006
7.4279 -0.444309 -6.79377
0.798987 5.0085 -9.99351
2.36537 -2.52011 -5.92988
2.4127 -2.50325 -5.95837
5.79838 3.03614 -6.18462
2.08411 -0.430638 -7.26316
2.14032 -0.557173 -7.36279
7.56996 -1.87447 -11.9591
4.71987 1.65499 -5.36273
3.4986 -1.85385 -9.42325
2.15048 -0.545378 -7.35189
6.92398 12.0196 -16.6883
4.24 0.874104 -6.05693
2.25482 0.665767 -7.52322
1.59095 3.37415 -10.5514
2.49439 -0.811524 -7.73956
2.5674 -0.902066 -7.7593
2.92977 -2.84607 -6.52992
4.94374 -3.21912 -13.1104
2.17858 4.5869 -11.6579
6.92243 1.20712 -5.25323
2.9654 -2.8644 -6.61082
9.34701 -4.78195 -6.50277
4.59542 1.06213 -5.2311
3.00737 -2.90546 -6.66174
3.07758 -2.99397 -6.67167
3.1032 -2.98927 -6.75143
6.61315 0.737431 -5.22914
3.09216 -3.01807 -6.79519
3.14652 -2.97533 -6.78234
4.40054 1.62518 -6.21454
6.23346 3.12523 -5.92226
3.43923 -3.34496 -7.06758
3.54812 -3.37711 -7.21065
3.65405 -3.5055 -7.30398
4.02788 -3.85799 -7.66358
5.34986 -4.03002 -13.0475
8.32201 -5.51054 -6.93062
4.21209 -4.0132 -7.89866
5.05516 -0.694307 -5.30524
3.15494 -1.48989 -8.91719
1.80408 -0.532149 -7.90062
5.01857 -3.7145 -13.0203
4.25758 -4.05921 -7.94011
5.34311 -4.99093 -9.10653
5.4239 -5.01206 -9.14107
0.0800659 3.80746 -7.58479
4.88499 2.03035 -5.99553
0.141217 5.63373 -9.21732
5.54843 2.03426 -5.76673
7.45272 -5.55705 -7.75476
0.240492 5.35731 -9.37723
0.407605 5.21884 -9.64266
0.508705 5.12817 -9.71987
0.573689 5.13266 -9.78282
0.661212 5.06993 -9.91857
1.22981 0.00487534 -8.03763
0.647072 5.06972 -9.89789
6.88787 1.68533 -5.57564
0.797186 4.87826 -10.0172
5.75964 -5.79576 -9.78177
0.818909 4.88135 -10.0175
5.70789 -5.81688 -9.75844
2.53988 0.210452 -7.21226
1.92089 -0.294817 -7.13458
2.18502 -0.863567 -8.34928
2.83539 -2.80696 -6.45323
2.21229 -0.810994 -8.11266
3.93196 -2.23375 -9.88211
7.69023 -1.10898 -6.34079
2.89787 -2.87945 -6.5366
3.0339 -2.97595 -6.64872
5.56028 -0.869909 -6.37154
3.65715 -3.50267 -7.29727
3.78728 -3.59332 -7.41368
9.34271 -4.10303 -13.3043
4.52157 -4.68129 -12.2946
4.39064 -4.15217 -8.13258
3.62432 -2.2777 -10.076
4.7298 -4.47474 -8.45781
4.22572 -6.17286 -11.553
5.43053 -5.04951 -9.15857
1.21199 -1.45691 -4.77239
5.7 0.311331 -4.21262
1.69655 -1.8604 -5.31139
1.93924 -1.14374 -8.60961
4.30375 -4.56278 -12.055
1.69105 -1.82164 -5.28754
1.73926 -1.87005 -5.36364
1.78085 -1.87457 -5.38499
0.36876 5.15617 -9.53918
1.38363 -1.67508 -4.96471
0.495385 5.09754 -9.65366
0.79122 4.7491 -10.0296
5.93966 0.0815613 -5.06839
6.15078 2.37038 -6.12122
2.64447 -2.60332 -6.28283
2.83471 -2.84126 -6.42426
2.97604 -2.88672 -6.5971
2.51064 -3.49124 -10.2343
3.06681 -2.9815 -6.74358
0.839354 1.65389 -4.96582
4.94964 1.38042 -5.28585
6.19494 -4.80313 -10.2683
3.30178 -3.20181 -6.96367
3.47199 -1.89342 -9.57473
3.3273 -3.27139 -6.97586
3.35844 -3.27435 -6.98497
3.40578 -3.36541 -7.02396
1.8766 -1.17922 -8.65571
3.43723 -3.39327 -7.03815
2.74673 -2.84642 -6.26074
6.75867 -5.58339 -9.07361
1.30664 1.41614 -8.97259
2.86322 -2.06596 -9.7059
3.74368 -3.6061 -7.45916
4.02871 -3.81016 -7.66052
3.9623 2.73949 -7.83194
2.1429 6.08768 -11.916
5.9707 1.51271 -5.32912
4.14977 -3.97804 -7.83588
4.32875 -6.24814 -11.1004
4.59701 -4.28405 -8.33568
2.56803 5.2834 -12.3224
4.67053 -4.41662 -8.41024
8.3266 0.387287 -6.5043
5.01882 -4.71649 -8.79333
4.63217 4.20768 -6.88889
5.07493 -4.77769 -8.79872
5.11591 -4.82488 -8.89484
5.79737 3.30821 -6.09128
1.55143 -1.78543 -5.14654
2.03328 -2.31473 -5.66318
3.66258 -3.52483 -11.6214
0.638764 4.94768 -9.81291
2.57316 -2.65208 -6.26742
4.2309 -2.33738 -9.84945
2.6674 -2.68811 -6.33373
2.73263 -2.75809 -6.33174
2.77977 -2.83364 -6.36203
2.83769 -2.87078 -6.44935
2.85223 -2.83744 -6.47158
4.13031 0.939246 -6.13555
2.90639 -2.93171 -6.54614
1.41713 1.45169 -8.88021
2.99438 -2.98042 -6.66102
3.0362 -3.06173 -6.69014
3.14357 -3.08061 -6.7834
3.24678 -3.257 -6.93095
3.45923 -3.47725 -7.07192
3.55891 -3.45181 -7.19116
3.83381 -3.71743 -7.47107
4.53526 4.48186 -7.75814
3.85947 -3.71584 -7.53286
4.08501 -3.95151 -7.79467
4.28985 -4.08473 -7.99868
6.11572 2.68274 -6.01071
4.15198 4.14613 -6.71025
4.41628 -4.20148 -8.16431
1.4038 3.71933 -10.3702
1.52376 5.837 -11.0206
2.46797 1.97213 -8.62415
4.54226 -4.23676 -8.30797
2.19357 1.00306 -7.94751
4.58677 -4.28258 -8.32564
3.10072 -1.86096 -9.48952
4.68684 -4.36148 -8.43527
10.2815 -1.28617 -7.94506
4.76801 -4.52996 -8.4886
2.1592 -2.93304 -6.8741
2.20614 1.34043 -8.38664
6.94508 -3.83578 -12.0194
6.8021 1.74984 -5.6823
5.14473 -4.82494 -8.90518
3.49805 -2.73151 -10.5801
5.15567 -4.80085 -8.94507
1.08136 5.47034 -10.4048
4.55276 8.67573 -15.2601
5.15643 -4.81648 -8.952
4.32864 -4.65532 -9.16468
1.36657 -1.57604 -4.88848
4.59374 4.65544 -7.77186
1.41124 -1.67363 -4.92325
2.24471 -2.41867 -5.88439
2.56744 -2.6929 -6.20217
2.7066 -2.74188 -6.35335
5.70085 -5.84518 -10.0656
9.40689 -3.6818 -10.2678
3.05766 -3.04532 -6.77114
3.1449 -3.09537 -6.82836
3.33384 -3.30175 -6.93228
6.40059 2.81594 -5.87621
3.91494 3.92542 -6.64281
3.76985 6.08935 -13.9094
4.789 2.19955 -5.47698
3.3216 -3.31997 -7.00596
3.39815 -3.39593 -6.97873
3.46242 -3.33799 -7.11123
4.46196 0.871705 -5.93414
8.04143 -6.02476 -13.1612
3.68097 -3.61139 -7.33882
2.06621 1.34042 -8.55355
4.14049 -3.88262 -7.86636
4.09362 -3.96775 -7.81783
0.616891 4.34401 -9.63139
4.16449 -3.98772 -7.85524
1.56494 -1.88251 -5.34484
6.37722 0.870212 -5.22739
4.3063 -4.14893 -8.0504
1.92678 5.4724 -11.4852
3.65644 0.0890262 -5.92628
4.66166 -4.32389 -8.45189
2.13608 6.76377 -11.9484
4.89096 -4.55351 -8.5732
6.60979 1.50514 -5.46636
4.40419 7.35072 -14.9571
4.86168 -4.54576 -8.63067
5.82597 -3.96912 -12.8025
8.83894 -5.13126 -9.8571
5.24802 -4.86646 -9.02289
5.23511 -4.91353 -9.05813
4.69334 8.44949 -15.5278
5.30621 -4.95155 -9.0561
1.50315 -1.81302 -5.13341
1.70953 -1.9051 -5.28922
5.86549 -5.72781 -9.53386
1.46601 -2.04245 -5.62431
8.23435 -3.96513 -8.72404
1.76221 -1.94436 -5.35309
2.30611 -2.46206 -5.90703
4.1958 -4.02212 -7.95456
2.93263 -2.97988 -6.71916
7.81498 -2.8431 -12.0886
4.6822 -4.42706 -8.41933
4.49423 7.86905 -15.2011
2.23323 -2.44415 -5.94984
4.89905 -4.65075 -8.6528
5.13935 -4.92809 -8.95821
4.14759 -3.70941 -12.1038
2.00559 5.92918 -11.669
5.22906 -4.94624 -9.01915
1.57796 -1.88128 -5.08933
2.96471 -2.5466 -10.5275
4.19261 4.14847 -6.71059
1.64017 4.96717 -10.8543
1.69895 -1.96357 -5.27717
1.32235 6.8762 -10.9618
2.36611 -2.52297 -5.91138
5.47493 0.41269 -4.53981
2.44458 -2.53001 -6.05044
2.54761 -1.45536 -8.93608
2.5186 -2.59494 -6.14149
1.21217 -1.54051 -4.86794
2.74326 -2.81183 -6.3785
2.74619 5.63746 -12.5853
2.82537 -2.82448 -6.52669
1.31811 0.246873 -8.11494
2.90527 -2.88389 -6.59571
3.09815 -3.04136 -6.70403
3.36654 -3.25425 -7.16624
6.32315 -1.7142 -7.48519
4.26284 -4.05155 -8.02345
4.53979 -2.52456 -12.9149
1.3833 2.11185 -9.45198
4.9304 -4.64418 -8.68504
1.26283 -1.58313 -4.83978
1.40842 -1.68597 -4.95897
2.44423 -2.54383 -6.12592
6.10958 -3.632 -11.8525
7.95977 -3.40822 -9.34039
4.07641 -2.25016 -9.9425
2.71268 -2.86337 -6.33604
5.69801 -4.8947 -10.8419
2.14132 -0.634152 -7.89127
8.97355 -2.84753 -10.0219
2.91578 -2.95099 -6.49606
4.509 -4.04881 -12.3971
3.13731 -3.11394 -6.79602
8.44586 12.1301 -15.7309
3.15142 -3.21545 -6.87867
4.40492 -4.718 -12.0945
3.23428 -3.24371 -7.03267
3.1555 -3.34921 -7.2559
3.33335 -3.26567 -7.07997
4.15987 -4.03466 -7.9176
8.96474 -2.16848 -12.507
4.13513 2.21952 -7.20364
4.22462 -4.06726 -7.93574
2.33212 -0.82469 -8.09938
4.36321 -4.10273 -8.11802
4.62193 -4.44121 -8.33243
5.0126 -4.77448 -8.79971
7.63949 -5.34488 -7.76637
2.81512 -3.06444 -6.89596
5.17632 -5.06663 -9.36137
1.84477 1.65258 -8.83163
7.88268 -2.70476 -9.59545
5.02666 -4.7656 -8.84292
0.659129 1.67697 -5.26105
2.60771 -0.97875 -8.20833
2.49415 6.89633 -12.4514
6.46973 -0.0302118 -4.78829
5.32734 -4.96799 -9.07884
3.31147 -6.51085 -10.6587
5.34915 -5.0163 -9.12864
4.30083 3.44734 -6.67849
1.2652 -1.57331 -4.82293
1.30846 -1.65343 -4.89177
1.46839 -1.70277 -5.00827
4.13642 1.91097 -6.99673
6.24482 -1.32054 -6.90326
1.46161 -1.72502 -5.02718
1.51214 -1.87199 -5.00439
1.88867 6.81854 -11.6091
1.59003 -1.83636 -5.24774
1.65036 -1.90491 -5.20987
1.95561 -2.17431 -5.55179
1.69882 -1.97644 -5.26815
1.76693 -1.97166 -5.31014
1.71804 -1.98995 -5.3567
1.42004 4.37711 -10.4946
1.89009 -2.1028 -5.49945
7.51062 -5.87319 -11.2204
2.19883 -2.37377 -5.83968
2.24744 -2.43483 -5.83552
2.42194 -2.59093 -6.06286
3.14452 -3.2025 -6.83714
2.8356 5.66479 -12.724
2.80211 5.28473 -12.5897
3.26909 -3.23402 -6.97115
3.64058 5.67689 -13.6894
3.03158 7.21707 -13.2559
3.31713 -3.27497 -7.11692
8.53078 -4.10445 -11.3144
8.12053 -5.55454 -7.13475
3.97626 -3.871 -7.77549
4.35603 -4.19725 -8.15407
8.42922 -5.37556 -6.82295
4.65314 -4.44402 -8.42037
4.57116 0.655079 -4.61568
4.68037 -4.48601 -8.48881
5.06435 -4.79513 -8.86318
2.45258 7.33029 -12.3836
5.22255 -4.83164 -9.03743
6.02792 3.03555 -5.98429
5.36201 -5.05415 -9.14416
5.40208 -5.07569 -9.20368
2.89985 7.65592 -13.2033
1.24256 -1.62317 -4.82377
7.97403 -2.66693 -9.57822
1.38858 -1.75542 -5.03093
1.55138 -1.7923 -5.08306
2.13642 -2.30205 -5.74704
6.89786 -3.37556 -11.7831
2.736 -1.65863 -9.22639
2.13657 -2.33231 -5.78084
2.37569 -2.50289 -6.00525
2.87879 -2.9786 -6.60316
1.39311 2.22368 -9.58895
6.85919 1.32466 -5.19359
3.17905 -3.2084 -6.96538
3.30383 5.72343 -13.2268
3.3223 -3.30825 -7.06411
8.9136 -6.08053 -12.2909
3.3567 -3.27345 -7.11536
3.65775 -3.60889 -7.40664
1.25351 -1.56513 -4.79874
5.99291 1.47992 -5.41854
1.50055 -1.81186 -5.14215
1.46927 0.569822 -8.27389
2.41005 -0.143765 -6.93465
1.9064 -2.15363 -5.54346
2.01603 -2.24631 -5.67171
2.19485 -2.35678 -5.83501
4.98481 2.88754 -5.94648
2.15949 -2.32931 -5.81318
2.15233 -2.43823 -5.85938
3.74502 -1.92559 -9.04796
2.56837 -2.66929 -6.22862
4.13762 -6.08349 -11.3758
2.57097 -2.73061 -6.24463
2.39306 -0.769825 -7.79465
0.479559 1.31939 -5.03806
4.07674 -4.04189 -8.2728
2.32149 -0.690875 -7.67001
8.47119 -3.88679 -9.11795
2.73293 -2.73438 -6.50686
2.98358 -3.07154 -6.71344
3.10245 -3.13968 -6.8859
6.66462 1.72895 -5.64195
4.49786 4.55714 -7.74264
3.25904 -3.31597 -7.06239
3.63432 -3.65117 -7.35786
4.08256 -3.94583 -7.83141
3.98109 8.1641 -14.5007
6.03982 -3.36881 -12.1171
8.48627 -5.10583 -10.119
2.41747 -0.828605 -8.14568
6.26806 -3.56249 -12.4254
1.27548 -1.58913 -4.94265
1.47525 -1.7888 -5.08869
2.79419 1.19133 -7.69817
2.04205 2.43621 -9.2378
1.44217 -1.76675 -5.14498
2.10907 5.24462 -11.6334
7.42819 0.168541 -6.62152
1.82159 -2.11712 -5.50979
4.30457 0.180293 -5.12507
2.93008 -2.97598 -6.65841
2.6293 5.78537 -12.5476
7.4153 -0.487236 -6.67038
3.00545 -3.04492 -6.74455
3.02421 -3.08395 -6.7704
2.22628 -1.60091 -9.14262
3.37371 -3.3547 -7.07893
2.52718 7.17601 -12.5402
5.93681 -3.28362 -12.1294
1.67107 2.05862 -9.15288
6.0826 -4.08037 -11.701
4.90769 -4.23792 -12.7407
2.1036 -3.23533 -7.65248
2.25939 -2.48028 -5.96086
4.94528 -2.66712 -13.2921
1.08925 3.66171 -6.4478
2.53365 -2.59096 -6.25916
7.84203 12.1069 -16.3043
4.0594 4.29212 -7.74849
2.55613 -2.61503 -6.29408
2.88067 -2.94908 -6.62393
2.95894 -3.09525 -6.66806
3.34374 6.96884 -13.5571
4.21256 -3.84301 -7.89498
4.83975 -4.65154 -8.68639
6.21123 -3.47033 -12.5138
6.27718 -3.60144 -12.431
1.17608 -1.55658 -4.88677
1.27107 -1.58768 -4.94285
3.13933 7.25631 -13.3709
1.28142 -1.56814 -4.98305
4.44208 -2.55342 -12.6976
1.62794 -1.89341 -5.30702
1.97034 -2.20407 -5.64566
3.95009 0.861969 -6.3997
2.03332 -2.23356 -5.757
3.88138 7.19579 -14.2945
2.19662 -2.39578 -5.91611
2.10997 0.792576 -8.09337
4.57805 -4.65716 -8.93034
6.29735 0.3059 -5.06802
1.80169 0.803885 -8.38297
2.30426 -2.53487 -6.05009
2.57984 -2.70946 -6.32579
3.03489 -3.18383 -6.69777
6.73937 1.63092 -5.57675
3.5411 -1.79852 -9.11751
4.56859 1.76757 -5.44629
7.58246 -0.387049 -6.71417
3.94945 -2.14999 -9.55235
4.09372 -2.26377 -9.73768
4.57697 8.07517 -15.2656
4.11633 -2.26537 -9.75407
4.11223 2.69099 -7.61792
2.9032 -3.95093 -10.6319
8.82997 -5.93868 -12.5604
4.18246 -2.29992 -9.70512
4.68674 1.16438 -5.99722
3.95963 -3.86739 -7.78176
2.4888 -2.80963 -6.54246
4.27022 -2.38906 -9.8445
6.19799 -3.57373 -12.4597
4.50568 0.575858 -5.69973
6.25736 -3.54544 -12.4183
4.24777 -5.34109 -11.8052
1.68937 -1.97245 -5.3466
3.23914 4.33413 -8.22252
1.89784 -2.17364 -5.58248
2.42889 -2.59627 -6.15328
2.69416 -2.90729 -6.39033
3.48042 0.839535 -6.74893
5.13379 9.06207 -16.1932
2.85138 -1.17969 -8.44529
2.90061 -1.22674 -8.4321
3.89066 5.79223 -13.9989
3.03111 -1.3009 -8.62038
6.06638 -3.34615 -11.9684
8.30027 -5.05292 -10.3101
6.22824 2.17344 -5.97539
3.01234 2.3177 -8.36488
2.99473 -1.33204 -8.65992
9.25197 -5.77917 -12.292
3.02293 -1.37456 -8.65008
3.43694 -2.12106 -9.91069
6.64608 -5.69684 -8.6093
4.76605 -1.45254 -8.12435
6.943 -1.80683 -6.88963
1.57003 2.29509 -9.43979
7.84564 -0.482818 -6.69
1.81775 5.22752 -11.1942
3.34737 -1.59781 -8.91123
4.30122 -3.31905 -12.3515
4.52871 0.441334 -5.24462
2.8764 6.45156 -12.8925
3.33131 -1.62633 -8.92661
7.3201 1.40341 -5.07601
7.55211 12.0492 -16.4385
3.34311 -1.58988 -9.0172
3.4159 -1.64101 -8.94282
5.64989 1.12888 -5.38383
4.11432 -3.10652 -12.1735
1.48322 -0.292891 -7.74977
5.37445 3.58202 -6.2622
4.74857 -3.81606 -12.78
3.38226 -1.63207 -9.00745
6.60075 11.8432 -17.2196
3.45913 -1.78312 -9.10673
3.49446 -1.80092 -9.13204
8.30244 -4.23926 -9.8798
2.6347 2.21773 -8.41678
3.59643 -1.79025 -9.17701
3.61163 -1.83313 -9.24565
3.79379 -1.99998 -9.33585
4.53423 0.955409 -5.71759
3.96094 -2.17718 -9.61212
3.89441 -3.86793 -7.81394
3.64827 -4.0644 -11.486
1.1666 -1.51209 -4.84134
4.15522 5.29567 -14.3043
1.49276 -1.79166 -5.16777
4.44897 -3.10523 -12.5501
2.06355 -2.30973 -5.79094
2.10856 -2.33355 -5.83451
4.5857 -0.278497 -6.0389
2.47254 -2.64351 -6.17277
2.79572 0.839536 -7.46301
2.52443 -0.98062 -8.07903
4.18849 -4.65172 -9.29185
3.05975 2.50546 -8.4735
3.57203 -1.72926 -9.32183
5.23781 -0.490722 -4.99967
2.61055 -0.978589 -8.16521
7.59463 -4.29782 -9.46381
2.67665 -1.02698 -8.29452
2.78227 -1.12892 -8.46877
3.08411 -1.37753 -8.77126
1.96282 -0.725187 -8.13502
3.32806 -1.54642 -8.97581
3.46901 -1.67792 -9.03753
3.33187 -1.65116 -9.11775
2.13631 -1.93851 -9.82878
3.92727 -4.68932 -11.6583
3.43902 -1.699 -9.07859
8.63024 0.489831 -6.17663
7.31295 -5.49572 -7.9105
3.48939 -1.73893 -9.11613
3.65561 -1.95991 -9.52833
4.03683 -5.80869 -11.5034
3.79363 -1.95692 -9.53996
3.86744 2.49082 -7.76364
3.9265 -2.08697 -9.55027
2.3935 2.21119 -8.91289
2.62245 4.36045 -12.1173
4.12788 -2.26156 -9.77207
2.91775 1.04644 -7.46771
7.22017 -4.73876 -12.3245
7.23806 -4.61183 -12.3729
1.69449 -1.99422 -5.46045
4.64308 0.775992 -4.6942
4.22888 0.219661 -5.26142
1.7998 -2.09517 -5.5516
1.42648 5.56161 -10.8246
2.02982 -2.2656 -5.8086
7.10773 -3.31562 -11.4212
2.16735 -2.36596 -5.84885
1.86442 -0.371514 -7.47533
1.90259 -0.362301 -7.53681
2.12384 -0.564531 -7.77444
5.26365 3.0209 -6.65432
2.15234 -0.579247 -7.82511
2.35196 -0.749493 -7.97346
2.43686 -0.809381 -8.09636
2.44091 -0.826005 -8.10643
4.60494 1.15363 -6.17294
3.67494 -1.89922 -9.38142
3.45122 -4.67138 -11.2376
2.59603 -0.955579 -8.25199
2.70786 -1.06162 -8.4295
2.8984 -1.19983 -8.53628
2.88759 -1.20075 -8.59374
1.58987 3.32148 -10.5135
8.33725 -4.7 -8.36505
7.59772 -0.67953 -6.63611
2.89924 -1.18281 -8.54706
2.8832 -1.237 -8.6038
3.19927 -1.52186 -8.88965
2.92258 -1.42592 -8.88653
3.55645 -1.71206 -9.2698
3.80157 0.610886 -6.23743
3.2499 6.57443 -13.4167
3.67772 -1.86241 -9.42866
4.83571 -4.66028 -8.76235
0.824623 3.75717 -9.7334
1.99896 -0.438985 -7.68084
2.0877 -0.498231 -7.73608
5.15825 3.1599 -6.11015
4.40331 -4.37021 -8.60639
2.39012 -0.8232 -8.0837
2.50246 -0.847355 -8.17739
3.12112 6.43132 -13.1941
9.00634 -2.95747 -9.84491
2.10823 4.58312 -11.5268
2.54495 -0.905109 -8.26501
1.88854 5.90924 -11.4818
3.3041 -4.44352 -11.1371
2.60452 -0.919154 -8.2552
7.85637 -3.86486 -9.9621
2.60101 -0.978594 -8.32166
5.21987 -2.73976 -13.6163
3.61485 -1.84678 -9.43245
4.89601 1.71474 -5.98369
7.90351 -2.58998 -9.74936
2.92957 -1.24072 -8.67602
5.48819 0.314108 -4.55191
2.95576 -2.33749 -10.2509
9.09044 -4.90545 -6.25577
3.12425 -1.43789 -8.82863
1.57282 4.17823 -10.6601
4.02509 2.13486 -7.36568
3.22357 -1.54757 -8.95662
2.39212 6.40857 -12.2294
3.2966 -1.56251 -9.0167
2.44364 -2.80085 -6.54364
3.34282 -1.63675 -9.02835
3.3636 -1.63527 -9.11359
5.16162 -2.95985 -13.5052
3.58145 -1.81972 -9.33912
3.86937 -2.017 -9.60955
7.6586 -5.53022 -7.53221
3.92879 -2.13261 -9.67889
3.98475 -2.19191 -9.70242
4.84754 1.99656 -6.29234
3.87417 2.7158 -7.91611
0.801901 3.81147 -9.70929
8.5132 -5.15888 -6.7595
1.8475 -0.383423 -7.52126
1.74329 4.49716 -11.0357
4.4688 0.956863 -4.93764
1.94013 -0.424913 -7.6517
1.99108 -0.481033 -7.68412
1.99513 -0.460651 -7.69523
2.14738 -0.615347 -7.8442
1.55614 4.35441 -10.6259
7.09626 -3.00727 -12.9412
2.2195 -0.654061 -7.87947
4.38687 2.09674 -6.8577
2.24774 -0.684965 -7.95511
2.30504 -0.732994 -7.99743
2.73496 -2.78667 -10.5125
2.98031 -1.26227 -8.70182
4.51516 -4.16439 -8.23063
2.97446 -1.33804 -8.70959
1.65048 1.68939 -8.89619
0.95876 2.29007 -5.36882
3.26357 -1.56687 -9.0032
3.44818 -1.64781 -9.21564
3.42813 -1.65773 -9.21281
3.78916 -1.96698 -9.52749
2.27058 1.73157 -8.71823
6.97046 2.73798 -6.3608
3.98505 -2.12909 -9.74922
4.02645 -2.19406 -9.78306
4.13374 -2.27309 -9.86485
0.258556 5.9498 -9.41483
5.86047 -3.36172 -12.2302
1.68859 -1.97517 -5.469
0.794184 3.71376 -9.7051
2.28324 -2.51239 -6.02554
4.30592 -2.96949 -12.4661
2.27052 -0.731238 -7.9249
8.60256 -4.17995 -11.2044
2.67062 -1.09353 -8.46178
3.06254 -1.34572 -8.75686
3.43149 -1.69993 -9.20157
5.34101 -2.80808 -13.6674
3.88936 8.18379 -14.4235
3.33203 2.34859 -8.14498
3.47631 -1.73306 -9.30391
1.00026 6.42495 -10.5759
2.60269 7.45565 -12.6791
3.81843 -1.96132 -9.58072
2.03627 7.91868 -12.1487
3.93205 -2.15331 -9.69319
4.16458 -2.36776 -10.0099
4.21562 -2.33024 -10.045
8.69832 -5.01979 -10.0079
6.79561 -5.84021 -8.39605
4.80409 -4.67255 -8.77664
2.07646 -0.567273 -7.76641
2.4462 -0.839141 -8.21818
4.28621 -3.48411 -12.3986
1.5424 -0.715296 -8.04656
5.09926 1.58258 -5.22757
1.83066 0.110412 -7.81204
2.88548 -3.15365 -7.00873
3.70368 8.75293 -14.2929
2.44888 -0.882085 -8.21719
2.67798 -1.10046 -8.43452
2.72273 -1.11056 -8.49671
3.12128 -1.42924 -8.90194
0.827096 3.00769 -9.50101
3.54077 -1.8073 -9.34747
6.59969 -4.80592 -9.87944
3.83684 -2.07423 -9.67559
4.18183 -2.29732 -10.0214
2.46164 8.73003 -12.7651
1.71652 -2.02728 -5.54239
0.784094 3.64205 -9.66425
2.64827 2.0959 -8.29667
2.9042 0.960221 -7.45189
4.96136 0.481752 -4.54591
0.852493 3.50389 -9.67073
2.29799 -0.795505 -8.03546
1.31021 0.884431 -8.61635
3.87962 8.4747 -14.4759
4.45568 -4.51288 -8.6669
2.78373 2.64973 -8.65125
0.81377 2.39393 -5.64418
2.48965 -0.904019 -8.26012
4.28052 -3.26136 -12.3758
2.51737 -0.9816 -8.30187
2.10723 6.82936 -11.9247
6.3477 -3.95901 -12.4761
2.79613 -1.21763 -8.56646
0.732734 5.95534 -10.0621
6.76241 -3.43712 -11.8573
2.87733 -1.26237 -8.64889
3.0115 -1.33468 -8.73652
3.15574 -3.3058 -7.07694
3.18258 -1.57631 -9.00271
1.99345 -0.642447 -7.98116
7.68754 -5.13699 -10.656
6.46581 -3.19932 -11.5855
3.65369 -1.90288 -9.47219
1.47686 3.98699 -10.5043
6.59305 11.9963 -16.8904
7.02289 -5.46141 -8.49283
3.93235 -3.8835 -7.84044
0.711239 3.62616 -9.62217
4.96054 2.65317 -6.87683
6.27422 1.52601 -5.38193
1.81627 -0.40016 -7.52979
1.84181 -0.46946 -7.53081
3.5198 0.134208 -6.1765
6.39014 1.56635 -5.36012
5.27462 -5.9285 -10.2582
1.91406 -0.492363 -7.68819
3.13122 8.38082 -13.6148
4.61199 7.20431 -15.1166
2.14913 -0.648442 -7.88693
2.55112 -0.991851 -8.34886
2.62071 -1.00884 -8.38871
3.22683 -1.598 -9.04825
3.3527 -1.68575 -9.24124
3.88698 -2.1294 -9.75629
5.01572 2.40904 -6.44674
4.75179 -4.57383 -8.82745
4.75784 8.67312 -15.6077
5.84592 -3.42157 -12.2652
1.5854 6.67484 -11.267
6.00825 -4.12858 -11.7969
7.43272 -2.04316 -7.26126
4.69558 -2.56297 -9.67077
6.11719 0.980947 -5.4215
0.719273 3.57177 -9.59307
0.773977 3.54979 -9.64384
0.776421 3.5553 -9.68619
1.95395 -0.493611 -7.70223
7.64368 -5.33968 -7.73109
2.25099 -0.720867 -8.03211
7.59298 -0.348875 -6.77887
8.90141 -1.96626 -12.4311
4.01994 0.235111 -5.52974
4.27155 4.89163 -6.74161
2.2758 -0.773045 -8.03068
2.34289 -0.832248 -8.17026
3.0054 -1.38598 -8.84092
3.38541 -1.71089 -9.22812
3.43192 -1.71246 -9.30809
4.08689 -2.99902 -12.2261
9.06092 -2.08342 -12.5371
9.3039 -4.84981 -6.5291
3.85593 0.218583 -5.85269
9.11334 -1.98579 -12.2933
3.48696 -1.75095 -9.3577
3.75361 -2.00166 -9.66292
2.17766 -2.46049 -6.10003
1.22064 2.29676 -9.77473
1.88168 -0.393229 -7.66432
7.75704 -4.02159 -9.72691
2.34081 -0.798978 -8.18802
2.13336 7.20682 -12.0717
6.96236 2.64417 -6.28642
7.88125 -3.71535 -9.72979
2.63734 -1.08357 -8.45247
2.69034 -1.12744 -8.53434
2.72192 -1.12557 -8.58317
7.9744 -2.8774 -12.02
1.61749 4.14819 -10.6908
3.08793 -1.46994 -8.96103
3.37657 -1.68386 -9.20047
7.45734 -2.1621 -13.3716
4.19883 -3.4029 -12.2445
4.19521 3.59498 -6.85858
3.51537 -1.79364 -9.40724
3.79922 -2.06428 -9.67775
4.33218 -5.42456 -11.944
4.24447 8.00335 -14.9048
3.86691 -3.83655 -7.86124
4.14549 -2.35058 -10.1479
2.88328 -3.84047 -10.6123
3.09097 0.373697 -6.83854
3.65407 1.34377 -7.07792
4.69956 1.74232 -5.33622
4.75034 -4.61806 -8.7962
4.75329 -4.70593 -8.79363
4.19876 -4.75217 -9.3044
2.10929 0.515345 -7.67061
2.46027 -0.950479 -8.31179
1.50881 5.12868 -10.7464
2.51668 -0.944852 -8.37117
2.81347 -1.2649 -8.65198
3.89926 0.934807 -6.43057
3.2194 -1.53827 -9.08054
3.6174 -1.9491 -9.62476
3.55854 -1.85409 -9.42762
3.76032 2.6179 -7.95087
3.92063 -2.22865 -9.86708
5.20568 -3.23413 -13.3947
5.59061 0.526622 -4.7439
4.6401 0.930021 -4.91961
5.96865 -4.14846 -11.7966
1.65243 -2.00152 -5.52448
2.37847 -1.02544 -8.57679
0.740504 -1.14051 -4.23901
1.87537 -0.469752 -7.7226
1.98921 -0.493506 -7.83044
1.49599 5.01922 -10.6904
2.11572 -0.657501 -7.92999
2.09626 -0.656343 -7.93228
4.47049 0.783606 -5.90165
6.93769 12.1 -16.4549
2.76698 -1.21702 -8.58494
1.98852 0.254177 -7.74149
1.6594 4.29484 -10.8342
2.84604 -1.2629 -8.71883
8.04128 -4.7346 -11.7212
3.88193 -2.23423 -9.97044
2.86692 -1.3232 -8.795
2.8925 -1.32985 -8.8309
3.60188 8.24907 -14.1373
1.41419 3.8793 -10.4458
3.09121 2.16197 -8.28559
3.20668 -1.60632 -9.10558
3.22757 -1.59927 -9.11525
3.07214 -1.71292 -9.44302
6.78765 1.49889 -5.43653
2.90985 -4.55752 -9.73164
5.83625 -5.79202 -9.50703
6.66364 -3.89468 -12.1813
3.58777 -1.93702 -9.58249
3.933 -4.46127 -11.7186
2.0323 4.93886 -11.5268
3.8686 -2.16791 -9.88483
3.955 -2.23945 -9.90941
4.1023 0.626256 -5.94359
5.25248 -5.04084 -9.41869
9.14094 -5.1425 -9.53508
4.3725 0.655102 -4.87592
0.808112 3.31969 -9.54369
6.60279 1.60396 -5.5102
1.2927 4.10686 -10.3721
7.66371 -4.68512 -8.80047
0.731609 3.2677 -9.59289
2.18731 5.70684 -11.8394
1.4228 -1.90976 -5.44997
0.801673 3.22567 -9.61605
1.84479 -0.456877 -7.7099
1.89107 -0.438908 -7.76121
2.37951 -1.28433 -8.76823
1.91936 -0.462114 -7.74503
2.04473 -0.54471 -7.88385
2.17284 -0.695184 -8.0033
2.25111 -0.817984 -8.18262
2.58838 -1.06136 -8.51475
2.02675 -0.929063 -8.39007
2.66855 -1.07246 -8.47745
3.77878 1.83306 -7.30386
2.88723 -1.306 -8.7961
8.20462 -5.47946 -9.37364
3.24278 -1.66287 -9.19125
3.30818 -1.66504 -9.24368
1.67481 0.577125 -8.24878
0.964384 4.86405 -10.1275
3.69117 -1.99998 -9.63889
3.81838 -3.86308 -7.8816
4.0755 -2.34368 -10.0861
5.09377 -4.87064 -9.20618
5.18287 -5.04221 -9.30093
5.2782 -5.01934 -9.41368
9.14359 -5.1489 -9.63313
3.51718 8.50194 -14.0903
0.829948 3.2126 -9.5595
4.43022 0.0729284 -5.01765
0.826727 3.19624 -9.52348
3.27689 6.38521 -13.316
5.58927 -1.00871 -6.63464
1.94586 -0.557674 -7.87473
2.33877 -0.900085 -8.23152
2.56753 -1.04583 -8.46043
2.09771 4.42016 -11.4809
2.91124 -1.33516 -8.76764
3.33704 -1.75519 -9.3229
2.1951 6.59942 -12.0131
3.39599 -1.77864 -9.39256
3.44105 -1.80053 -9.39871
8.5613 -4.01423 -9.18708
3.97987 -2.24142 -9.9699
4.99745 -4.7627 -9.14149
2.21511 1.36072 -8.39636
6.00524 1.03332 -5.30503
2.02393 -0.60669 -7.90543
2.39493 -0.93169 -8.32204
2.734 -1.25866 -8.69801
7.749 -2.34057 -7.41472
8.20688 -5.32052 -7.04342
2.28995 1.9151 -8.75103
3.02765 -1.47346 -8.93379
3.64522 6.12005 -13.7537
3.16807 -1.59125 -9.1253
3.04636 4.50952 -12.5727
3.49127 -1.87182 -9.5099
3.73893 -2.05619 -9.75904
3.36036 0.254525 -6.38809
3.8807 -2.18411 -9.84603
3.89482 -2.19351 -9.91605
4.71032 -4.6345 -8.83584
3.76723 0.485331 -6.12268
4.93574 -4.79703 -9.11226
2.20473 4.68196 -11.7203
5.2259 -5.05641 -9.38412
7.53646 -3.65694 -10.2098
0.682552 3.19231 -9.47886
4.03806 -2.88908 -12.1294
2.15794 -2.47158 -6.07933
3.95856 -2.27388 -9.97151
5.17339 2.64503 -6.45384
3.27059 5.71784 -13.2972
2.07039 -0.612407 -7.98583
2.10332 -0.653948 -8.01538
8.45296 -3.75561 -10.9427
7.52447 -0.982596 -6.61733
1.48726 -2.2354 -5.99886
8.14069 -5.48695 -9.38446
2.39163 -0.920936 -8.38816
2.4253 -0.981463 -8.39407
1.70315 5.15171 -11.0754
6.11599 2.52974 -6.1116
2.505 -1.00421 -8.41193
2.73752 -1.26995 -8.63541
2.82307 -1.29905 -8.75435
3.00372 -1.45485 -8.94322
1.80607 6.81142 -11.548
3.94567 0.779561 -6.16363
7.89935 -5.13929 -10.4744
3.0931 -1.55121 -9.05527
5.64204 -4.41124 -13.7
3.16845 -1.52429 -9.11329
2.13418 -1.30301 -8.79581
3.16687 -1.61192 -9.14945
3.16648 -0.0398669 -6.26663
3.54816 -1.9126 -9.56252
4.79651 -4.74478 -9.00567
4.88207 -4.76073 -9.095
4.9381 -4.86725 -9.02353
4.51877 2.31445 -6.5963
4.80381 0.827628 -4.98501
5.18641 -5.06724 -9.4104
0.737922 3.06422 -9.51889
2.18053 -2.55052 -6.14882
1.71681 -0.41597 -7.60877
5.17491 3.29384 -6.56819
1.71228 -0.409836 -7.63881
7.42654 -5.12028 -10.9046
8.3784 -5.15867 -10.2112
5.39303 -6.36 -9.8526
1.74034 -0.380455 -7.66708
5.92359 1.92433 -5.76579
1.82904 -0.485825 -7.79256
2.17664 -0.738167 -8.11962
6.20278 -5.65637 -9.35211
2.18315 -0.781141 -8.16612
2.23333 -0.776156 -8.16673
2.47362 -1.00875 -8.43276
2.54534 -1.08996 -8.51135
0.442324 0.395128 -4.284
2.77902 -1.27002 -8.75068
3.26191 -1.67766 -9.26253
4.47786 4.26509 -7.81118
4.20958 -4.86301 -9.27628
3.32372 -1.78255 -9.3711
3.65706 -2.00794 -9.66287
4.16218 -4.10941 -8.33502
4.61759 -3.06965 -12.7362
4.24892 -4.17385 -8.42674
6.67635 -2.33808 -13.9008
4.43151 -4.36249 -8.59799
4.5496 -4.45602 -8.73802
2.94036 -4.52602 -9.62587
3.35653 -4.10391 -8.6056
5.22664 8.99591 -16.2037
5.00935 -4.90501 -9.16936
5.5621 -0.0517657 -5.1798
1.61669 -1.97301 -5.53885
0.741824 3.04043 -9.4479
0.767342 3.03206 -9.46884
0.779949 3.0211 -9.51067
1.88109 -0.512874 -7.86896
3.01389 5.83063 -12.9691
4.86279 7.99726 -15.6061
2.24141 -0.856665 -8.23356
4.20651 1.7556 -6.73192
5.89951 1.41028 -5.47564
2.29614 -0.820041 -8.25541
2.60751 -1.11654 -8.59494
2.92689 7.23656 -13.0699
2.7294 -1.23311 -8.73259
3.68538 -2.04567 -9.74078
6.43783 -1.05077 -6.19734
4.03294 -2.32858 -10.1242
4.07907 -4.04094 -8.30831
0.394102 0.210112 -4.15614
4.27521 -4.20642 -8.4018
4.31403 -4.31193 -8.51081
4.45214 -4.41329 -8.62951
4.30918 2.00533 -6.86621
4.50907 -4.42316 -8.6342
3.50799 -3.77193 -7.79321
5.84531 3.28614 -6.06888
4.50081 -4.46051 -8.67332
3.1536 5.17063 -12.9136
4.54493 -4.55705 -8.804
6.74794 -1.9344 -6.91001
4.7201 1.65151 -5.19379
4.6291 -4.51004 -8.8001
0.706243 3.01581 -9.41937
5.09113 -5.03374 -9.25312
5.12857 -0.666255 -6.25318
3.47582 -2.45434 -10.2301
7.33238 -4.69615 -12.2837
4.29217 -4.68328 -9.17107
4.59593 0.727738 -5.35675
1.88103 -0.565862 -7.88518
4.11218 1.13544 -6.33942
1.90151 -0.553727 -7.85817
5.14837 1.52271 -5.25748
2.30081 -0.863804 -8.31153
6.27406 1.19361 -5.46604
1.36944 5.73924 -10.7457
2.70891 -2.9173 -6.81775
9.49587 -4.56571 -12.9159
3.0126 -1.53532 -9.04323
5.25925 -6.01501 -10.1744
3.4233 -1.80881 -9.44055
8.47159 -5.50213 -13.0363
3.23089 -6.57363 -10.6359
4.15278 -4.24972 -8.3445
3.38177 -1.8296 -9.47363
1.53953 -0.361546 -7.7431
1.43082 3.53946 -10.3389
3.79965 -2.12604 -9.84253
9.19447 -5.10843 -9.6344
4.05487 -4.0851 -8.1622
2.11709 3.50178 -11.3488
0.720737 6.96887 -10.2687
4.34349 -4.31623 -8.53579
4.68631 -4.62385 -8.82851
2.75175 5.40466 -12.5871
5.29009 -4.16255 -13.2944
7.71137 -5.29428 -7.65108
4.91797 -4.86159 -9.1361
8.15388 -3.71871 -11.0798
1.69051 4.71686 -10.9615
2.35115 -0.966933 -8.44598
2.32602 -1.01892 -8.63894
2.6701 -1.65627 -9.18645
2.60842 0.215197 -7.15018
2.6888 -1.21691 -8.72526
7.8649 -2.83608 -12.1946
7.9379 -3.67008 -11.2149
3.15449 -3.40856 -7.18902
3.17243 -3.3601 -7.20556
2.15382 5.99819 -11.8949
4.57168 -0.0291379 -5.96218
4.79616 2.57933 -6.98576
3.49829 -2.35761 -10.1443
3.38122 -3.49335 -7.50566
3.60153 -3.63185 -7.71228
1.49811 6.74307 -11.1743
3.66163 -3.7028 -7.80757
3.90609 -4.06305 -8.03393
6.45771 -4.86584 -12.2639
5.48646 -5.06748 -13.2176
3.95265 -4.05972 -8.11847
3.1583 -2.16242 -9.84674
2.39552 1.22357 -7.86618
4.38703 -4.36174 -8.57793
2.09494 -2.22847 -9.80561
7.45969 -1.18173 -6.55648
2.05577 6.38733 -11.8644
4.40158 -4.36283 -8.63003
2.8744 0.205563 -6.81986
4.42092 -4.43196 -8.57988
5.02493 1.61634 -5.12505
3.9477 -4.30355 -11.7431
4.61727 -4.56667 -8.79358
4.65024 -4.63528 -8.76524
1.7094 4.94859 -10.9711
4.34642 -4.75647 -9.11787
4.57634 5.43099 -14.8368
4.99672 -4.95115 -9.23855
4.415 1.3865 -6.32738
2.06358 -0.723378 -8.07632
2.05419 -0.704206 -8.0956
2.57461 -2.88028 -6.55012
2.80465 -3.04331 -6.92204
1.09616 3.37754 -6.21527
2.91626 -3.24604 -6.92799
2.60581 -2.22434 -10.063
2.9583 -3.17677 -6.9954
8.16467 -4.80982 -11.5387
3.1134 6.79823 -13.3458
3.01919 -3.1297 -7.08954
3.45719 -3.55514 -7.647
5.92739 2.03506 -5.78333
3.53136 -5.6209 -11.1286
3.71428 -2.12933 -9.83542
3.84367 -3.95738 -7.98479
4.07267 -4.09532 -8.22243
4.20423 -4.1898 -8.34821
4.48667 -4.51624 -8.69101
4.55832 -4.55131 -8.71276
1.62539 2.43086 -9.46797
5.05349 -4.95157 -9.24876
1.50064 -0.0172329 -7.97044
7.681 -0.476956 -6.67665
0.98742 -1.52887 -4.98582
1.13407 -1.62147 -5.09914
1.81393 -0.487914 -7.80163
2.54989 -2.8128 -6.58057
8.34037 -4.07408 -9.77149
2.54254 -2.81688 -6.62488
2.55623 -2.8633 -6.61783
3.92186 8.25551 -14.4802
3.23098 4.50384 -8.3824
2.5979 -2.91693 -6.68513
1.48199 5.3485 -10.8035
2.62915 -2.92508 -6.64827
2.65241 -2.96544 -6.7545
2.75468 -3.03315 -6.76024
4.65009 5.67729 -14.9387
2.68676 -1.73622 -9.31963
2.73193 -3.06484 -6.90134
2.30131 -1.2343 -8.69591
5.78085 -2.36416 -14.3442
8.25566 -5.15792 -7.29648
2.84196 -3.13704 -6.87258
4.23971 1.4719 -6.5351
1.58968 -0.763275 -8.15089
1.33861 0.236911 -8.04911
7.17784 -5.82984 -8.07676
2.81315 -3.11536 -6.90813
5.52872 -0.671963 -5.47255
2.9405 -3.17649 -7.00224
3.22873 -3.43092 -7.30625
5.50001 -3.02881 -13.8754
4.17169 -4.17988 -8.36692
4.1682 -4.18994 -8.34295
2.79166 2.67432 -8.67567
0.928821 3.30321 -9.71403
4.22974 -4.3317 -8.41666
4.31642 -4.35457 -8.49848
4.72488 -4.72474 -8.9604
4.79092 -4.72 -8.94043
1.13813 -1.65393 -5.08818
4.74886 7.71158 -15.3787
1.09924 -1.59557 -5.10343
1.4508 -1.95384 -5.38419
1.89478 5.11461 -11.3247
3.53734 1.05816 -6.94357
8.15983 -3.4365 -9.28226
1.99789 -2.44961 -6.03348
5.77668 -2.28755 -8.83619
1.48097 4.45693 -10.598
2.09717 -2.52823 -6.11011
4.59201 7.73172 -15.2358
2.11197 -2.5254 -6.18122
2.1255 0.443344 -7.45664
1.24432 0.747102 -8.48501
5.17507 8.42881 -16.0293
2.25648 -2.63962 -6.29152
1.88178 -0.559756 -7.90118
1.85524 -2.36494 -5.97414
3.09125 -3.43437 -7.34476
3.26952 -1.4521 -8.66689
2.43074 -2.75988 -6.41353
4.81689 1.03691 -4.85855
8.6659 -0.0199085 -6.80939
2.55027 -2.90368 -6.61197
2.62537 -2.9888 -6.65126
8.62197 -5.51297 -13.0474
2.10103 1.22997 -8.41788
2.76182 -3.02147 -6.83327
2.87288 -3.15082 -6.93851
2.98041 -3.2354 -7.06432
4.38388 -3.27873 -12.4569
5.59111 1.31924 -5.56255
2.94532 -3.22187 -7.09454
4.4689 -3.44697 -12.519
3.04635 -3.29182 -7.12151
4.29539 0.260802 -5.12488
5.58508 -3.69209 -13.1432
4.83829 1.93187 -6.56775
3.63999 -3.79937 -7.76554
4.13951 -4.19288 -8.3057
4.37796 1.45409 -6.42605
4.24601 -4.27599 -8.46158
2.37 3.5852 -11.7009
7.34897 -1.19144 -6.57608
4.38604 -4.44276 -8.59467
0.954376 5.06755 -10.2011
3.42581 -1.8735 -9.52751
4.7837 -4.75831 -9.01088
4.13688 7.30572 -14.669
2.71896 -1.45139 -9.00562
4.37293 2.58334 -7.30776
5.14634 -5.05268 -9.36771
1.21058 3.35129 -10.0593
1.03052 -1.616 -5.07079
1.42638 -1.93175 -5.41618
2.47861 -0.0259531 -6.93841
1.73134 -2.21132 -5.76008
2.00924 -2.4576 -5.96454
2.07336 -1.38235 -8.9383
1.4019 1.04941 -8.61006
2.36429 -2.70622 -6.44498
2.75493 -1.06459 -8.08064
6.64446 -4.80024 -11.9926
2.89518 -3.10417 -7.02372
9.14378 -2.00931 -12.2871
8.76158 -5.56198 -12.8682
3.20595 -3.42688 -7.36428
7.24997 -0.602424 -6.75595
4.09588 -4.11954 -8.23689
4.26923 -4.33222 -8.48212
4.46481 -4.50498 -8.64517
1.07296 -1.70034 -5.02155
4.11653 -0.0419938 -5.55246
1.1332 -1.69041 -5.10915
1.18188 -1.79792 -5.09195
1.20964 -1.74747 -5.12346
4.74024 -2.5312 -13.1463
1.38161 -1.98741 -5.44035
2.18461 -2.57116 -6.21453
3.80124 -3.91844 -7.9646
2.8308 -2.17055 -9.94543
3.8747 -3.96803 -8.09951
2.37252 6.74925 -12.325
3.87512 -3.95744 -8.17483
3.94454 -4.07339 -8.158
4.90213 -4.86864 -9.12513
4.97949 -2.93592 -13.1953
4.92731 -4.87777 -9.16516
4.10012 -3.40768 -12.1986
4.96545 -4.96196 -9.17797
1.8499 4.94075 -11.1842
2.00596 -2.41651 -6.05894
2.67708 5.93092 -12.5989
3.82438 -3.94053 -7.95046
6.35326 -1.41809 -6.13267
3.93848 -4.01055 -8.17779
1.5009 1.83169 -9.17743
4.41605 -3.00875 -12.6204
4.16853 -4.31994 -8.35558
4.48187 -4.55297 -8.68877
3.54141 -5.91606 -10.9554
4.53659 -4.56275 -8.76286
5.03297 1.98224 -5.53663
1.92709 6.31398 -11.6257
4.57319 -4.59314 -8.78713
9.08766 -2.80773 -9.97125
0.906824 2.69206 -9.53959
1.25615 -1.84401 -5.21093
1.24772 5.64982 -10.6691
1.59577 4.84833 -10.7886
1.91678 -0.218478 -7.26666
4.54417 1.44104 -5.24231
1.48276 -1.95317 -5.49872
7.96296 -3.78594 -11.2226
1.81969 -2.2782 -5.95381
2.33985 -2.7856 -6.47928
2.7287 -3.0926 -6.90776
4.6153 0.632347 -5.41695
5.68644 1.68056 -5.64555
4.58301 -4.64453 -8.83941
5.92348 -3.62077 -12.8554
1.22885 1.09045 -8.74165
1.25802 -1.81082 -5.23957
1.32579 -1.92684 -5.34438
1.61087 -2.13666 -5.69355
4.22537 4.58851 -7.69221
7.93311 -1.45125 -6.93523
1.77534 -2.27966 -5.86563
4.49018 4.56746 -7.61585
5.88782 3.76816 -5.94669
8.63172 -4.81359 -11.1908
2.60845 -2.95523 -6.68106
2.68937 -3.03463 -6.82384
3.8291 -2.24863 -10.0069
4.56918 -4.68121 -8.90994
2.32073 8.54241 -12.6361
0.969943 -1.52405 -4.96403
1.19652 -1.78685 -5.2878
2.33524 -1.07069 -8.62372
1.5379 -2.03224 -5.50742
1.64647 -2.13259 -5.72446
3.43944 2.14753 -7.88015
9.33282 -2.46888 -10.1323
9.66986 -3.54675 -9.42835
1.23779 4.68463 -10.4087
3.33422 -1.98588 -9.71521
2.12329 -2.57052 -6.17148
2.33305 -2.74937 -6.49434
6.25385 2.3341 -6.00641
3.97588 -4.1226 -8.27811
3.80798 -3.62739 -11.7507
2.21235 0.241401 -7.20468
7.24422 -0.84343 -6.63323
3.1675 6.12433 -13.2176
4.34824 -6.15509 -11.7456
4.61963 -4.69349 -8.94072
3.61657 -0.745829 -7.32922
6.86069 -3.04488 -13.2012
4.75189 -0.337564 -5.77943
5.96724 -2.43274 -14.3724
1.31612 -1.87468 -5.34989
2.83324 0.530091 -7.09171
1.68964 -2.18786 -5.78077
4.51731 0.838135 -4.84008
8.58958 -3.81224 -10.8072
1.60572 1.95077 -9.14957
2.05064 -2.52668 -6.16224
1.99573 0.504395 -7.71127
7.68769 -3.95722 -8.87473
2.35611 -2.80969 -6.56955
2.44231 -2.7908 -6.60841
2.40328 4.93879 -9.16671
1.31869 -1.87975 -5.32457
3.39648 0.319081 -6.51176
1.37077 -1.94509 -5.42262
1.72645 -2.25557 -5.71238
1.71556 -2.2686 -5.82799
1.05792 5.88871 -10.4959
1.75465 -2.28486 -5.87033
5.99579 2.99539 -6.00246
2.00536 -2.48261 -6.0638
2.32451 1.27625 -7.96077
2.08809 -2.54937 -6.21828
0.624774 1.77477 -5.31907
2.11924 -2.54434 -6.18874
4.63441 -4.50436 -12.4838
3.51694 -2.08263 -9.84588
3.66453 -2.15921 -9.94771
3.70706 -2.21106 -9.98302
5.09976 2.46586 -6.37706
4.3633 1.95491 -6.68698
3.47552 1.21495 -7.14647
3.73649 -2.23544 -10.0581
3.81393 -2.29903 -10.1499
6.53304 2.05525 -5.96302
4.21378 -4.32268 -8.56139
4.25613 5.97795 -14.4573
1.04485 -1.72317 -5.18083
1.16397 -1.76972 -5.2724
8.90029 -5.54247 -9.7146
1.35102 -1.90112 -5.51098
3.78072 1.27319 -6.83829
2.17381 -2.65535 -6.31403
2.02202 -0.782128 -8.2304
3.13426 -3.41063 -7.45108
3.27475 -1.87895 -9.62363
5.74721 1.08879 -5.43613
3.78887 -2.31499 -10.1083
3.80508 -2.30453 -10.1704
2.11781 4.89741 -11.6332
7.498 -5.48205 -7.71162
4.60281 -4.67128 -8.9229
5.88279 -2.45403 -14.4136
5.09025 -4.97292 -12.9197
5.91274 -2.4808 -14.4322
1.17855 -1.7547 -5.30197
1.50115 -2.05478 -5.65559
1.69399 -2.19856 -5.81021
1.68065 -2.2117 -5.88531
1.85174 -2.36268 -6.02639
2.57006 -2.99458 -6.72772
7.4637 -0.368833 -6.75124
2.45965 -1.20223 -8.74227
5.02192 2.44392 -6.49461
2.69474 -1.38379 -8.95387
8.65499 -5.62114 -9.66427
2.76949 -1.46679 -8.98481
0.646117 1.2178 -4.71578
4.79095 1.52469 -5.9586
0.614308 1.00171 -4.59145
6.52345 -2.03424 -8.1465
3.85299 2.29079 -7.66922
1.62279 7.97207 -11.5653
2.76238 -1.45767 -9.00819
3.88642 4.28911 -7.68815
3.9985 -4.41051 -8.82026
2.88314 -1.53542 -9.17074
2.93674 -1.62449 -9.21873
2.92594 -1.60166 -9.26326
3.01555 -1.59614 -9.21722
3.81474 0.562781 -6.20994
4.37911 5.28519 -14.5555
2.85983 1.05135 -7.56035
3.18987 -1.81436 -9.51568
3.68132 -2.17388 -10.006
6.70483 -1.88051 -7.8312
6.60787 -1.99533 -8.01556
3.70518 -2.26289 -10.0886
6.32807 -4.83352 -10.154
1.57587 -2.14734 -5.7339
1.64826 -2.1559 -5.83803
4.58515 0.156505 -4.45733
1.95474 -2.42683 -6.13184
4.07455 -4.73511 -11.7785
2.73761 -1.63975 -9.22314
4.2637 -4.20229 -12.0599
2.31406 -2.7389 -6.52325
2.40727 -2.79354 -6.5968
5.68745 -4.05437 -12.8854
2.25014 -0.962582 -8.5286
2.43018 -1.12137 -8.61447
2.78926 -3.16218 -7.004
9.50528 -4.65759 -6.27916
2.23799 0.969685 -7.89937
2.76927 -1.46205 -9.05178
4.27771 6.06796 -14.5039
2.94217 -1.62388 -9.28988
3.14017 -1.72578 -9.43394
3.4412 -2.01538 -9.82258
2.17594 0.112188 -7.19186
3.74166 -2.28012 -10.1315
3.78326 -2.3303 -10.1697
2.3042 6.84664 -12.0924
2.19946 4.7501 -11.6927
3.84305 -4.02453 -8.23629
1.44448 -0.311346 -7.76261
4.61 -4.72732 -8.92552
8.9663 -4.79581 -10.8926
2.65109 4.68289 -12.2112
1.34367 -1.91129 -5.51276
6.33251 -4.79861 -10.1808
2.70718 0.120759 -6.9508
9.14974 -5.8375 -12.2843
1.56848 -2.17809 -5.71136
5.46871 -3.58754 -13.3059
1.62948 -0.483877 -7.90792
4.48448 0.120551 -4.33439
1.79574 -0.558762 -7.99509
2.91665 6.8328 -13.0061
1.80729 -0.622911 -8.08188
1.87672 -0.62208 -8.10317
4.6121 -5.42817 -12.2628
2.08559 -0.864103 -8.29466
2.46492 -2.88426 -6.69611
3.85818 4.49705 -7.80012
3.10188 0.705337 -7.06136
3.62468 4.65056 -7.70126
2.1154 -0.889572 -8.33792
7.71958 -5.77166 -11.1736
2.35397 -1.12126 -8.7144
2.65997 -1.37693 -8.94138
3.10792 -3.47343 -7.44484
3.09846 -1.70504 -9.46121
6.93762 -2.20715 -7.80812
4.61857 -4.71916 -8.97728
7.02458 1.20871 -5.2068
5.82475 -2.33196 -14.3769
5.91196 -2.48955 -14.4154
3.41575 0.975512 -7.02855
1.28404 -1.86679 -5.49692
4.98945 0.433356 -4.6942
2.12674 0.98475 -8.19326
4.77935 4.57359 -6.96282
9.7545 -3.64597 -9.48985
1.65402 -2.18733 -5.83291
2.01749 -2.61016 -6.29122
6.92276 1.33157 -5.19434
1.61196 -0.434306 -7.87749
1.63434 -0.460841 -7.90055
7.22878 -0.627961 -6.73959
8.65932 -5.58688 -9.68779
3.13084 -6.55271 -10.6943
1.67034 -0.569998 -7.961
4.7948 0.960935 -4.8532
5.2244 -0.60009 -4.9951
1.95699 -0.73615 -8.23659
6.10248 1.55769 -5.24944
3.11595 6.82094 -13.2581
1.98277 -0.77838 -8.27104
4.16969 4.25394 -6.77539
7.991 -2.64304 -11.8902
1.34636 3.04165 -10.091
5.3475 0.0662162 -4.68331
3.38856 1.4532 -7.4031
2.03726 -0.885273 -8.38608
2.63628 2.26963 -8.47704
2.08232 -0.940269 -8.46011
2.45613 -1.1839 -8.82914
0.949665 3.35813 -9.77252
2.70701 -1.44889 -8.99651
3.20915 -1.88633 -9.67686
0.89391 -1.46154 -4.90363
3.47519 -3.74107 -7.82158
3.58778 -2.1767 -9.95553
5.88912 -2.49298 -14.3894
3.14886 -4.30565 -10.9113
0.997744 3.11187 -9.75354
1.66109 -2.22571 -5.9233
2.01826 -2.60915 -6.21875
1.72187 -0.575939 -8.03532
9.39747 -5.72928 -12.3161
1.76352 -0.629694 -8.06283
9.35782 -5.92175 -12.0963
2.21557 -0.974228 -8.53476
4.68976 1.6285 -5.48134
1.45501 3.83299 -10.4124
2.73875 -1.05419 -8.00076
5.7661 -2.38106 -14.2706
10.7047 -1.09259 -7.57308
10.6402 -1.08916 -7.60354
4.54087 0.336742 -5.22675
10.5922 -1.16531 -7.66938
2.80942 -1.79029 -9.38862
0.738411 6.52976 -10.2309
7.83726 1.04226 -5.44142
2.7627 -2.43902 -10.3298
10.3219 -1.25811 -7.81946
8.54372 0.528188 -6.1646
7.51749 1.30877 -5.26664
7.25424 1.42216 -5.05785
3.07101 -3.95608 -10.8518
9.29894 -2.48523 -10.137
8.96812 0.148179 -6.59124
10.2898 -1.31596 -7.89757
8.11485 -3.15851 -10.1849
6.79521 -2.01285 -6.88271
7.65294 -3.84814 -8.6339
7.20241 1.36963 -5.08542
8.78183 -5.90408 -12.6204
7.13514 1.43173 -5.04589
7.05407 1.37387 -5.10249
1.94756 -2.91387 -7.06155
4.54609 -5.47552 -12.0704
5.11089 3.66175 -6.37095
7.91937 -1.56186 -6.14153
7.06008 1.28172 -5.16428
6.47548 -0.084278 -4.76879
5.89252 0.361364 -4.23798
3.56067 2.17163 -7.84466
7.04182 1.4024 -5.09615
3.46637 1.9643 -7.70726
7.72055 -3.75664 -8.51707
5.8741 0.309377 -4.22793
4.49562 -4.09332 -8.20433
3.8325 2.53232 -7.8107
2.26572 8.18464 -12.5069
6.23284 1.9899 -5.83776
8.04963 -1.02905 -6.24548
10.0834 -1.39944 -8.11616
3.68574 -4.09829 -8.25107
6.97942 1.28487 -5.19873
7.98725 -1.08862 -6.2219
6.9489 1.40188 -5.18565
5.11921 2.48612 -6.3489
10.1323 -1.38752 -8.1332
8.32665 0.216988 -6.46584
4.67314 1.38657 -6.0102
7.75805 -3.44996 -11.0534
7.93106 -1.05913 -6.19204
2.45392 8.76581 -12.7633
5.85946 -1.1344 -6.98023
7.95155 -1.11705 -6.24692
2.51173 -1.72211 -9.38969
3.10328 5.26666 -12.9545
3.69846 6.18214 -13.9114
7.24447 -4.83998 -11.3158
6.93635 1.25831 -5.17058
6.97563 1.0734 -5.29062
4.88227 1.83148 -6.01414
8.65449 -0.0407228 -6.81745
3.87868 -3.16043 -11.9083
7.09485 -3.84599 -10.4817
10.0806 -1.32109 -8.17122
4.62246 -5.25919 -12.3497
4.50704 -2.84484 -12.6512
5.68332 0.285733 -4.21847
5.06093 4.26044 -6.76857
7.90831 -1.18282 -6.27427
8.14028 0.38171 -6.42015
10.0468 -1.33264 -8.19679
3.82892 7.531 -14.3954
8.52389 -3.12886 -9.7688
7.82494 -0.83071 -6.55128
8.50956 -0.0766189 -6.82905
8.53373 -0.0737662 -6.84247
6.82536 1.35836 -5.25996
2.50602 2.06017 -8.48793
6.86143 1.28277 -5.29387
6.17823 0.0104766 -4.83906
1.32885 7.0436 -11.0581
1.54189 0.50851 -8.25681
7.64132 -0.10151 -6.90567
8.03993 0.442696 -6.40184
8.47572 -0.0303852 -6.86021
4.11383 8.1816 -14.5579
4.37353 1.588 -6.2103
7.74737 -1.13965 -6.24811
6.97791 -0.281568 -6.4467
8.35462 -0.0829861 -6.79312
4.99166 -0.651489 -6.37442
4.28552 -0.106838 -4.67978
8.37616 -5.59153 -13.241
8.26064 -1.91007 -6.86234
4.28443 -4.79103 -9.17805
5.26697 -5.99287 -10.1614
3.38707 1.17203 -7.16329
4.12121 -6.13649 -11.4697
7.66149 -3.89506 -8.74245
8.27268 -1.93447 -6.79072
2.56058 6.69075 -12.5316
6.29055 0.885081 -5.30184
6.77243 1.28985 -5.25724
6.13247 -0.237343 -4.83242
6.22712 -0.317546 -4.89547
4.69749 -0.226641 -5.96817
6.21861 -0.351785 -4.90593
7.96277 -3.82515 -11.2276
0.603244 1.51147 -5.17829
8.19886 -0.113124 -6.70001
3.64952 -2.49288 -10.2192
6.70137 1.36125 -5.35582
6.19594 0.0433697 -4.93231
8.12527 -0.168786 -6.67654
8.16489 -0.443468 -6.7153
5.22083 -0.421714 -5.04975
7.71969 -1.09812 -6.34217
5.60051 0.355287 -4.43765
7.61704 -1.29748 -6.29404
7.06573 -4.7374 -9.44728
5.63586 0.401553 -4.47922
7.9418 -0.68778 -6.66313
6.64995 1.30851 -5.32683
7.07438 -3.08636 -12.9724
1.3988 0.438877 -8.20478
7.54787 -1.22814 -6.31947
8.04645 -0.121528 -6.7218
7.80998 -0.790037 -6.56224
7.88809 -0.375083 -6.70352
7.13272 -3.33043 -11.5197
6.10016 0.0689527 -5.01542
3.66458 6.92291 -14.0122
7.83168 -0.349563 -6.69593
4.92488 3.01356 -6.96246
7.30711 0.579334 -6.15845
6.13771 0.00994266 -4.96856
7.72793 -5.85626 -11.0178
7.80773 -0.626566 -6.63632
1.88204 0.251572 -7.84324
7.57319 -1.01665 -6.48498
7.53342 -1.06772 -6.46774
8.50587 -4.15749 -9.74207
7.6773 -0.768141 -6.65758
7.82723 -0.118276 -6.77178
2.58929 5.40209 -12.4002
1.30794 3.01419 -10.047
4.60296 0.410217 -5.23148
7.46075 -1.33505 -6.43297
6.01002 0.0989152 -5.03509
3.46427 0.847055 -6.82555
7.84362 0.0328115 -6.80672
2.14652 -2.41889 -6.13136
6.07526 0.301321 -5.12946
7.57225 -0.899918 -6.5654
4.27907 3.71252 -6.49512
6.06966 0.325784 -5.15199
1.45229 -1.74107 -5.15086
4.50282 0.427479 -4.60972
10.2279 -6.19661 -10.8692
4.93836 -3.56921 -13.0554
6.02617 -0.367146 -5.09567
7.84471 -0.0938265 -6.83418
3.73222 0.338105 -6.1661
1.34207 1.7918 -9.31429
7.58949 -0.747835 -6.61303
4.55966 0.496426 -5.78265
1.80059 0.999155 -8.49848
7.64601 -0.459576 -6.67803
4.02587 -2.31878 -10.0698
4.59667 1.56151 -5.43973
7.63002 -0.50245 -6.6854
4.69636 -4.5173 -12.5483
7.64959 -0.634411 -6.6609
7.52383 0.268311 -6.61714
7.71912 0.0253756 -6.76948
1.53047 -0.790652 -8.13445
2.05252 0.156783 -7.35283
7.72904 -0.196525 -6.80526
4.47846 -4.52814 -12.3219
8.12412 -3.28864 -10.4376
7.6221 -0.50749 -6.70162
7.61962 -0.577731 -6.6874
7.54508 -0.745333 -6.65705
8.00534 -3.1261 -10.405
7.42115 -1.29258 -6.50557
7.7453 0.0283064 -6.86505
7.74502 -0.236888 -6.77309
3.36256 -3.03756 -11.2771
3.33999 -3.37522 -11.2408
7.66348 0.159553 -6.73451
4.49835 0.694515 -5.6818
7.58539 -0.448488 -6.74868
7.83995 -1.43715 -6.9785
7.07513 1.64073 -5.52981
6.04668 -0.273485 -5.24512
1.63216 -0.238307 -7.72293
7.52793 0.139921 -6.62963
7.70547 -0.0769802 -6.78169
7.11984 -3.82498 -11.9082
0.455947 -0.518214 -3.45531
3.57054 2.48963 -8.03497
5.98278 -0.929919 -5.76574
2.11845 -0.563834 -7.45015
5.07346 -0.61428 -5.54455
8.57014 -5.6824 -9.63456
3.77745 7.62057 -14.2569
7.60072 -0.340554 -6.75744
2.36926 -3.14647 -7.37232
2.29245 0.299282 -7.38702
7.53981 -0.524591 -6.69162
3.07901 5.89943 -13.0738
2.45346 4.95061 -12.0895
3.39891 -4.66128 -11.2109
5.92076 0.206416 -5.15831
4.34154 -4.53264 -12.0874
7.53447 -0.421725 -6.70667
7.35865 0.0533268 -6.6145
1.92373 -0.989275 -8.35749
7.48574 -4.68114 -12.1486
7.46159 -0.600924 -6.70988
7.39885 -0.920849 -6.62409
4.16719 0.166581 -5.24564
7.47942 -0.397353 -6.70822
8.21388 0.341774 -6.41113
5.40167 -3.3642 -13.6034
7.44012 -0.405471 -6.71638
6.20069 -4.13631 -11.6237
1.92758 5.72254 -11.5269
5.14406 -3.03098 -13.2651
7.42922 -0.848401 -6.67696
5.55352 -0.726335 -5.40487
4.44117 7.24112 -15.0532
7.72162 -1.4828 -6.98776
0.930366 4.96322 -10.1364
6.04904 1.53964 -5.41551
4.7119 0.755423 -4.92067
7.56254 -0.0143889 -6.89283
4.85139 -2.50791 -9.58067
9.16824 -2.15935 -8.40499
1.00383 5.53434 -10.3612
3.09863 0.0499977 -6.49078
7.52736 -0.163268 -6.89291
7.06722 0.212829 -6.50836
