ply
format ascii 1.0
comment Created by Open3D
element vertex 1816
property double x
property double y
property double z
end_header
3.07946 -5.12994 -5.04593
0.439867 -4.66672 -8.57186
2.66465 -14.1243 -2.01175
0.425301 -4.23606 -7.52294
0.483488 -4.62771 -8.64749
2.68997 -5.11063 -5.08767
3.48476 -12.5952 -3.26339
0.464293 -4.93897 -9.11276
3.72503 -3.60424 -9.39707
1.93271 -5.30674 -7.95404
2.36941 -14.5132 -1.08089
2.16412 -5.41355 -7.91175
-0.614454 -4.24329 -4.6683
4.12055 -3.56447 -9.29956
4.746 -5.09858 -10.88
3.42518 -2.98326 -6.54314
0.869271 -4.61911 -9.16867
0.804181 -4.5285 -5.60042
6.65807 -6.98019 -11.3532
5.89485 -5.61291 -7.46832
3.36775 -5.65072 -7.75322
4.01425 -6.31636 -3.44106
0.520786 -4.85476 -9.10958
5.05312 -7.13872 -10.5713
0.640038 -4.58936 -9.25255
3.19187 -10.5173 -0.933226
-0.491146 -4.38385 -5.82612
0.719382 -4.52623 -8.13366
3.22516 -4.8151 -13.5403
5.3811 -5.85476 -7.33323
0.649487 -4.55174 -9.38655
5.14638 -5.67078 -6.1834
0.724521 -4.60351 -9.37175
1.13656 -5.23115 -8.00571
1.52115 -4.87794 -5.50919
0.64981 -4.81806 -9.65724
-0.559359 -8.34594 -2.99096
0.692225 -4.76726 -9.71341
-0.148086 -2.76263 -11.7746
0.642718 -4.3791 -7.7011
3.43278 -5.73942 -8.18451
-0.343848 -3.86083 -4.99774
-0.192032 -3.76467 -5.32493
2.05649 -6.21983 -11.4626
0.337342 -4.25289 -7.6078
2.82307 -11.1431 -0.375195
0.329606 -4.9333 -8.51697
0.674638 -4.74624 -5.78298
1.10678 -5.25273 -7.98348
0.429966 -4.66489 -8.52817
4.35573 -5.74448 -6.61335
5.34392 -5.73301 -6.13637
3.19042 -5.63105 -7.47497
0.846986 -4.93733 -6.05812
6.14971 -8.61012 -10.7709
0.759059 -6.17974 -4.4776
2.32209 -6.53506 -0.883252
0.662552 -4.84271 -9.59851
-0.52373 -5.49556 -8.05661
2.04879 -5.45421 -8.76009
3.06847 -8.88963 -11.8721
0.694604 -4.77615 -9.66992
0.766192 -4.75465 -9.7667
0.46643 -4.75195 -9.24073
0.264843 -9.08809 -2.9261
-0.393124 -3.78328 -4.72154
3.71602 -5.77925 -8.13135
3.41721 -13.7418 -4.12583
-0.295795 -3.66364 -4.78039
0.319896 -3.65097 -11.9602
-0.86257 -5.41322 -4.53815
0.65937 -4.80925 -5.80962
-0.303649 -3.69188 -4.95011
3.17665 -14.3603 -3.61073
-0.274811 -3.82096 -5.03673
1.52766 -4.7777 -4.91318
3.66096 -6.78748 -11.177
-0.308556 -3.82735 -5.09226
2.49708 -14.2005 -1.17881
2.77869 -12.4161 -0.950451
-0.291358 -9.12681 -3.08836
-0.26184 -3.86675 -5.20159
6.13554 -4.77487 -7.24392
1.52517 -4.93105 -5.57788
-0.24073 -3.87377 -5.26271
0.182253 -4.37124 -7.44734
3.14749 -13.3941 -2.74895
0.347175 -4.38335 -6.35704
-0.0519875 -3.91842 -5.96782
0.375627 -4.66621 -6.08713
-0.873865 -6.42725 -4.17326
-0.0196466 -4.01153 -6.35606
2.26404 -15.7858 -2.73651
1.8352 -5.02523 -11.891
0.0224202 -3.90778 -5.37748
3.61786 -5.49524 -6.91207
6.40101 -7.17844 -10.4388
1.42008 -5.52212 -4.51194
1.49453 -5.29622 -8.83909
3.85462 -3.40989 -8.52961
3.60227 -9.94349 -2.45833
0.202592 -4.85518 -7.97699
6.9518 -4.20994 -9.75601
4.12728 -8.99459 -11.6139
3.58906 -10.0024 -2.2192
3.32624 -13.2395 -3.22209
0.348176 -4.475 -8.02713
0.70625 -4.50101 -8.61357
0.296177 -4.95245 -8.51573
3.74928 -3.06653 -6.29253
-0.487291 -3.65354 -4.87901
0.478131 -4.53306 -8.57551
0.742855 -4.56333 -5.62487
1.91248 -1.9607 -1.78122
5.37604 -6.41099 -14.0238
1.5112 -5.16431 -7.51597
0.756712 -4.70872 -9.78054
1.83498 -5.69183 -4.36786
2.2034 -5.32593 -11.1315
2.70186 -5.43414 -7.2065
0.990794 -5.12916 -8.62376
3.70449 -5.43139 -5.03073
-0.482956 -3.92265 -4.79424
3.66845 -5.30584 -4.58444
-0.317564 -3.72821 -4.76232
2.86778 -14.3724 -2.67962
6.31262 -6.34263 -9.45621
2.37468 -5.63656 -4.21283
-0.275101 -3.65774 -4.81556
1.60239 -5.11996 -6.96303
-1.55012 -5.10818 -6.30164
1.62772 -5.07234 -6.33229
3.84463 -9.42081 -2.73295
6.45452 -6.68829 -10.1404
3.47441 -5.18356 -4.98485
6.32219 -6.83614 -9.87345
5.81186 -5.43197 -6.93992
4.01143 -5.20377 -4.10402
3.42964 -2.83413 -5.37965
6.22456 -7.61658 -10.1593
2.65137 -4.75815 -11.3236
2.93654 -14.9352 -3.18919
-0.270465 -3.72103 -4.87736
0.525719 -4.66371 -8.49108
-0.214687 -3.66928 -4.89841
3.1077 -2.46022 -3.78631
-0.239121 -3.69546 -4.9485
1.97365 -6.51379 -10.4464
0.0843654 -2.52858 -11.5973
2.7783 -5.54233 -6.66457
1.69075 -5.16042 -7.15532
2.06885 -5.43381 -8.19049
0.0651982 -4.1075 -6.09124
-0.264023 -3.76147 -4.99701
2.88177 -16.9588 -4.55465
4.21434 -5.42166 -5.12883
-0.897177 -8.5471 -3.16889
6.04399 -7.9362 -9.54104
3.70482 -13.2473 -4.54955
1.23628 -4.81956 -9.67698
-0.251463 -3.74845 -5.09985
2.6609 -7.74283 -10.4774
-0.209983 -3.77828 -5.15098
1.39733 -5.14231 -7.63317
1.54265 -4.92048 -5.59371
3.51133 -5.36355 -6.36196
-0.171913 -3.78842 -5.38427
1.21552 -5.24844 -8.15483
-0.154789 -3.84519 -5.38693
0.779902 -4.75158 -5.59443
2.67801 -16.2325 -3.26899
-0.0314906 -3.95342 -5.87082
1.01238 -4.62379 -4.8977
0.0591745 -4.0122 -6.33363
3.40945 -10.0597 -1.23756
3.55896 -12.2928 -3.30523
1.66536 -6.09553 -10.9796
2.92942 -10.9022 -0.497291
2.64766 -6.50422 -10.807
0.229989 -4.11076 -7.06084
3.32139 -6.68688 -3.80946
0.37806 -4.46981 -8.00274
1.42839 -4.75204 -4.99267
3.64013 -11.2503 -2.84491
1.00809 -7.40877 -4.22077
3.10151 -5.55659 -6.75684
0.432083 -4.60549 -8.54371
4.62821 -6.7207 -11.079
2.67425 -5.3761 -11.436
2.91557 -5.0558 -4.60354
-1.10086 -7.5066 -3.99752
0.514292 -4.53199 -8.6063
5.9204 -7.53368 -10.8953
2.69612 -5.5649 -8.46725
3.04404 -5.07808 -4.01664
2.02 -5.50348 -8.8431
0.570594 -4.4432 -8.64961
3.56525 -5.25318 -5.45712
2.63047 -6.89518 -3.72268
4.02994 -6.49516 -11.2877
6.26113 -8.23276 -10.8438
3.07717 -2.62247 -4.94682
6.12676 -7.30607 -9.46788
3.31892 -14.0296 -4.03092
0.565722 -4.45603 -8.65261
4.55626 -5.93693 -11.9704
5.74118 -5.3813 -6.76713
0.868299 -4.67031 -4.93769
2.25413 -5.41006 -11.9863
3.32982 -6.23953 -3.92581
3.24348 -5.64145 -7.62396
3.13415 -6.68654 -3.85837
1.55681 -5.15947 -7.71469
2.09876 -4.56791 -11.0934
2.45236 -5.1941 -5.90199
0.692852 -4.66178 -5.16439
0.53061 -4.48367 -8.72811
0.638598 -4.63843 -5.05561
1.29134 -5.15414 -7.61944
2.44363 -5.68785 -4.19712
2.61038 -17.5919 -4.15365
4.24543 -8.50095 -10.0796
3.2719 -6.60235 -11.9642
1.587 -4.98454 -5.80478
2.36259 -15.0828 -1.47878
0.462617 -4.94262 -9.11204
3.09991 -5.70608 -8.00141
0.676541 -4.55926 -9.12621
2.51452 -13.3916 -0.757038
2.60712 -5.09334 -5.33101
-1.36374 -5.76941 -5.81738
0.921426 -5.09296 -8.47426
0.66418 -4.38783 -7.89496
4.3636 -6.88687 -11.5782
3.6965 -2.94773 -6.02012
2.14247 -4.81983 -10.9811
0.691901 -4.57633 -9.2496
0.721265 -4.55489 -9.26033
-0.743827 -7.51517 -4.47149
1.25745 -5.28131 -7.99242
0.371508 -4.0213 -6.17802
0.714189 -4.56872 -9.31732
-1.39094 -7.82492 -4.02433
3.89395 -5.58934 -12.2211
0.426787 -4.76934 -6.83055
0.597187 -4.39501 -7.46875
2.59298 -5.59639 -8.15196
1.68218 -4.8852 -10.7643
2.70295 -11.0605 -0.0935105
1.92118 -4.96879 -5.30395
-0.595701 -8.24224 -2.9807
0.740716 -4.74492 -9.68011
-1.99773 -6.12154 -6.12394
-0.203923 -3.72975 -5.02058
3.99367 -5.38522 -3.73108
0.707418 -4.38406 -7.76024
-0.262524 -3.74717 -5.1147
5.48188 -5.82991 -6.4488
1.00421 -4.61487 -4.87506
4.01821 -8.50104 -2.81555
-0.107534 -3.8482 -5.43431
2.38854 -7.19999 -3.80554
-1.86941 -7.17701 -5.37677
-0.00822729 -3.93228 -5.92456
1.74557 -7.27245 -4.01251
-0.137897 -4.29721 -6.08875
0.203938 -5.00892 -8.67026
1.19332 -7.02494 -11.8339
1.40839 -6.83262 -4.24637
0.100817 -4.04098 -6.43872
1.13043 -5.16499 -8.54666
0.953756 -4.80863 -5.61827
0.646739 -4.73576 -6.30568
0.860706 -21.2357 -4.34683
-0.0117069 -4.57564 -6.8415
3.81571 -6.82917 -10.6034
0.222562 -4.10537 -6.94563
2.30782 -15.8327 -2.73404
-1.04912 -4.41292 -6.24654
3.49126 -13.1268 -3.70566
1.59202 -4.95655 -5.69633
0.00376229 -6.58709 -4.77945
0.230336 -4.22076 -5.03976
0.156488 -4.51989 -7.22762
3.35456 -11.7082 -2.53402
0.732614 -4.72834 -6.32161
-0.71918 -6.5398 -4.32589
-0.833 -4.53686 -5.26912
0.22008 -4.40683 -7.42305
3.43382 -12.0818 -2.78118
0.385998 -4.53694 -7.97974
1.46201 -5.06383 -8.21411
0.42404 -4.45026 -8.01874
3.87333 -8.23969 -3.10577
0.924123 -10.5966 -0.305868
-0.0423451 -3.75464 -4.87882
-0.811925 -6.05574 -4.18041
0.459054 -4.32148 -8.16619
0.501629 -4.6196 -8.56425
0.50012 -4.99179 -9.06819
1.67044 -7.91483 -3.87916
0.378282 -4.24478 -7.40265
-1.03973 -5.99719 -7.55518
-1.12006 -4.95398 -5.69392
-0.210041 -3.71771 -5.06593
3.86616 -5.68395 -12.1775
1.29446 -5.22385 -7.76204
-0.197837 -3.72524 -5.14898
-0.1314 -3.81787 -5.29504
3.2805 -12.2547 -2.52237
2.25983 -5.35116 -7.27722
-0.421723 -5.03651 -4.41844
-0.165147 -4.01408 -5.51738
5.54422 -5.69458 -6.30668
-0.173018 -4.24983 -6.06969
1.28883 -5.13035 -8.24765
0.261421 -4.39709 -7.17309
3.11007 -11.7327 -1.83336
-1.0204 -8.80034 -3.47452
3.50657 -7.45272 -3.4091
6.74057 -5.70234 -10.6557
-0.130268 -4.3529 -6.11844
0.322924 -4.21494 -7.47279
1.71103 -6.23315 -12.5887
1.82739 -5.28899 -8.27858
-0.872237 -7.75528 -4.26738
2.52024 -7.73079 -10.469
6.05589 -7.13622 -9.21223
2.44621 -5.09332 -5.43577
3.05924 -12.2844 -1.92228
6.53142 -6.02245 -9.99781
4.18082 -5.79571 -7.16537
2.84577 -5.49232 -6.41583
0.350836 -4.24345 -7.53967
3.31427 -12.7229 -2.82441
5.26697 -5.94555 -7.7232
1.73074 -6.96244 -2.41099
0.418187 -4.31761 -8.04717
-1.08422 -6.18883 -4.54029
4.51083 -5.45825 -5.59211
0.427447 -6.42502 -4.45141
1.52124 -5.08902 -7.27824
-2.09959 -7.36393 -5.80768
0.766569 -4.6099 -9.37216
4.89388 -9.12393 -11.2917
0.688137 -4.83278 -9.56271
1.25161 -4.84356 -6.04616
3.95335 -3.41475 -7.72021
0.920378 -4.93832 -7.44357
0.142389 -4.31551 -7.51981
-1.34856 -7.0703 -5.11058
-1.35728 -5.80662 -5.57968
1.73441 -5.09863 -6.58253
4.1269 -3.75279 -9.77421
-0.229642 -3.73622 -4.97014
5.42985 -3.40342 -10.9523
3.25299 -5.45196 -6.06044
4.77153 -5.71058 -6.56096
1.48623 -5.31585 -8.23541
1.04845 -4.76796 -9.65154
-0.11687 -3.787 -5.20627
3.12205 -15.2243 -4.06372
-0.182041 -4.00216 -5.48646
3.62523 -5.27763 -4.57095
0.61205 -6.24865 -4.49093
2.75351 -5.2446 -5.70718
-0.16977 -4.02614 -5.62504
0.765284 -6.09784 -4.48464
4.32617 -5.38941 -5.04639
1.89029 -5.01861 -5.62942
-0.00379849 -3.95087 -5.96427
0.936971 -5.168 -7.14194
6.30391 -7.55529 -10.775
6.43557 -6.68645 -10.0415
0.227694 -4.1454 -6.92074
-0.194198 -4.45919 -6.28437
4.03295 -8.14327 -2.6241
-0.525229 -6.38929 -4.52652
0.410617 -4.23981 -7.60736
0.293619 -4.64793 -7.99469
2.41124 -14.3383 -0.981807
1.35857 -4.87156 -5.71165
0.316855 -4.58771 -8.01167
1.42968 -5.27833 -8.82418
0.48356 -4.30429 -8.04043
0.596228 -4.77462 -5.15883
0.368349 -4.27582 -7.63708
3.93944 -6.66666 -11.7677
0.512498 -4.69992 -6.73538
0.492781 -4.33316 -8.11661
-0.419511 -4.86898 -6.89176
0.441454 -4.31942 -8.15304
2.57176 -5.54355 -8.01003
3.52432 -11.5532 -2.84847
-0.0445136 -3.90771 -5.57359
2.73672 -16.1991 -3.43692
0.446167 -4.79712 -8.47205
5.17098 -6.68622 -14.045
1.13465 -4.99287 -8.27739
1.61708 -5.2738 -9.14523
3.37854 -7.18708 -3.57053
1.80367 -5.02431 -5.60114
4.51919 -5.80223 -6.69176
0.599523 -4.42513 -8.57691
2.66142 -5.56083 -8.04084
0.638603 -4.44155 -8.66831
4.34286 -5.65451 -6.06139
3.11667 -7.954 -10.3063
0.535459 -4.77216 -5.24343
0.28113 -6.01245 -4.8019
-1.02062 -5.16152 -5.82235
1.14989 -4.86638 -9.58854
0.545562 -4.88064 -9.11543
2.19378 -5.35379 -6.24076
0.730739 -4.80231 -9.54171
5.8143 -5.86015 -7.31608
2.14637 -5.28745 -6.98945
0.742353 -4.79585 -9.66409
-0.349923 -3.7984 -4.69727
2.86276 -12.3293 -1.18587
5.75493 -3.92239 -8.79524
1.82123 -5.26978 -8.12986
-0.235221 -3.70432 -4.85617
3.68669 -3.25175 -7.81453
1.31593 -5.29771 -7.99012
4.31111 -5.71967 -6.32575
-0.144115 -3.81536 -5.25957
0.353711 -4.36686 -7.35144
1.15242 -5.18248 -7.42069
3.03056 -2.5241 -4.9426
0.432069 -4.75506 -6.88885
2.79331 -5.24676 -12.5991
0.382934 -4.51405 -5.16758
-0.161225 -3.87601 -5.34881
2.66136 -16.3552 -3.28555
2.01717 -5.34542 -7.54635
2.95902 -5.2441 -5.52794
5.03897 -5.8713 -7.40267
3.17306 -11.9704 -2.00654
-0.137232 -4.02382 -5.52657
0.970146 -5.17034 -7.98531
-0.179808 -5.19889 -8.06457
1.14939 -5.24433 -8.61392
2.17816 -8.54074 -11.014
-0.145002 -4.00883 -5.63801
3.17097 -14.2462 -3.49842
-0.0767121 -4.32071 -6.06865
-0.694739 -6.47456 -4.07519
1.61637 -4.8886 -11.4254
3.81642 -5.71899 -7.84745
0.0146768 -4.48462 -6.7513
0.68018 -4.60049 -4.84031
3.57234 -12.1562 -3.54174
4.78319 -6.45395 -14.1506
0.507919 -4.33204 -8.12451
0.0866906 -4.26176 -5.14193
-0.408836 -6.40252 -4.6256
3.50311 -5.76288 -8.17981
0.319779 -4.16519 -6.73598
3.74558 -9.32323 -2.14926
0.625891 -4.44321 -8.71272
3.44209 -13.5652 -3.88427
3.43806 -5.65161 -7.52344
0.63651 -4.79019 -9.11019
3.53228 -8.16774 -10.3008
3.27802 -6.63008 -11.2627
3.52062 -2.78498 -5.30808
0.733444 -4.57979 -9.12793
0.513864 -4.76838 -6.91503
-0.278211 -3.82057 -4.66447
0.52585 -4.38293 -8.06797
0.524013 -4.58705 -5.09602
1.62536 -4.85849 -11.4116
-0.154533 -4.35449 -6.28839
-0.119479 -3.86019 -5.46761
2.09499 -10.7987 0.0373085
6.13595 -5.15695 -7.69086
1.63685 -5.09048 -7.05527
1.30731 -5.17512 -9.21715
-0.120309 -3.95812 -5.55449
5.644 -5.97593 -7.53583
0.0284967 -3.69271 -4.90007
1.13668 -6.96575 -4.25558
-0.0370722 -3.93481 -5.80165
-0.122858 -4.89754 -8.09466
1.03467 -5.07613 -9.20598
-0.661162 -5.63789 -4.3223
4.95734 -5.03606 -10.7841
0.00210317 -3.9106 -5.81197
-0.0116374 -3.93906 -5.83993
3.3057 -10.908 -2.01596
2.29574 -5.56684 -11.2327
-0.868433 -6.71883 -2.47204
-0.0545785 -4.27578 -6.04816
0.070801 -4.48327 -6.74741
2.58345 -5.47206 -11.7354
2.33296 -5.07971 -5.27926
2.30505 -15.1028 -1.35665
-0.644266 -6.53028 -4.36717
-0.743559 -5.42794 -4.6012
5.44579 -6.45336 -13.9974
0.048796 -4.49504 -6.72908
2.6879 -8.77405 -12.0207
0.550802 -4.35112 -8.17497
0.569613 -4.86924 -9.01738
3.82946 -9.15884 -2.49095
0.326687 -4.59135 -5.9356
-0.329774 -7.95778 -3.26616
-1.1372 -4.32016 -6.26087
0.625779 -4.80979 -9.09007
1.12513 -5.329 -7.86645
1.30616 -5.85609 -11.6007
1.24351 -5.04287 -8.28804
3.49161 -5.62354 -7.29093
2.56315 -19.1318 -5.04377
2.92496 -14.0334 -2.51914
1.36324 -6.94888 -4.23965
0.694466 -4.9371 -6.72173
5.89646 -5.91096 -7.7464
2.65963 -16.1713 -3.06732
0.158958 -5.10724 -4.9345
0.911015 -4.73563 -5.74686
3.34408 -5.65309 -7.87148
2.65678 -15.2418 -2.59348
1.23628 -7.49233 -4.1605
0.759713 -4.55814 -9.26054
0.825415 -5.05483 -7.93763
0.79941 -5.05504 -8.31141
5.60773 -5.98691 -7.70683
0.530218 -7.05386 -4.35583
1.07171 -5.08085 -8.29798
0.0719137 -2.66714 -11.6379
0.794065 -4.60454 -9.41263
2.50758 -5.46474 -6.49604
0.51898 -5.30526 -4.71591
-0.174741 -3.73068 -4.94735
-0.158265 -3.75688 -5.03718
-0.154161 -3.75439 -5.00641
-0.00873957 -4.41966 -7.58804
2.03426 -5.4998 -4.37272
1.80315 -10.1128 -2.11897
4.1183 -8.08802 -2.92481
3.76768 -9.09489 -1.91385
0.271454 -4.18401 -6.9249
4.87319 -6.27926 -10.9372
-0.0959734 -3.89855 -5.33732
2.45423 -5.49039 -8.66015
6.54436 -5.3967 -9.53859
-0.0692717 -3.89001 -5.40137
2.42943 -6.51242 -0.77013
-0.0777086 -3.8476 -5.48982
-0.0705154 -3.92418 -5.53224
2.60399 -6.54776 -11.1611
3.26865 -10.1495 -0.890794
0.814718 -10.0318 -2.73909
-0.0465055 -3.93401 -5.63012
1.69966 -6.94372 -2.4134
0.458386 -4.46423 -7.83239
-0.643413 -4.42873 -5.93004
0.775394 -2.69688 -11.5236
-0.0640583 -3.98531 -5.63868
1.92676 -6.20763 -11.4469
3.28732 -10.6677 -1.40547
1.33767 -5.16145 -9.0571
3.91684 -8.72659 -2.64836
-1.6544 -6.91013 -5.37181
0.00672693 -3.96417 -5.73729
3.16306 -12.1938 -2.09711
4.43049 -6.41618 -12.5016
3.11954 -14.9088 -3.74502
4.16855 -5.68993 -12.205
0.0147595 -3.93081 -5.93676
3.92493 -8.32315 -10.1029
1.0411 -4.97529 -7.52088
2.85201 -5.57586 -8.56887
-1.85295 -7.11619 -5.04718
3.80851 -5.31832 -4.57477
0.0276176 -3.95881 -5.95917
2.69861 -5.22838 -4.24069
2.21539 -6.3637 -10.4693
3.21747 -2.55737 -4.30122
-0.0359026 -4.14294 -6.0755
3.72945 -5.53257 -3.96092
0.0604252 -3.89357 -5.58067
0.137091 -4.07121 -6.39054
-0.308072 -5.03574 -7.5111
6.1334 -7.39179 -9.5373
1.08177 -4.91072 -6.31056
1.88342 -5.1101 -6.33509
3.73287 -8.25586 -10.207
0.0482596 -4.50775 -6.80849
0.735373 -5.05816 -8.32527
-2.18343 -7.7195 -4.21409
1.58351 -5.2314 -8.04322
-1.26992 -6.87519 -5.22731
2.81291 -2.38833 -3.62818
0.253637 -4.16548 -6.90579
4.24998 -5.78053 -6.48215
4.4946 -9.1158 -11.3719
2.0442 -6.05148 -4.27081
0.437576 -4.75515 -8.46682
1.14439 -4.74769 -5.54262
2.29113 -4.53225 -12.711
5.02323 -6.27208 -10.9622
0.067054 -4.01961 -5.89304
0.706037 -4.56853 -5.70895
3.83739 -3.21906 -6.86145
6.46022 -6.41557 -10.0239
0.483664 -4.73068 -8.49013
1.82746 -5.25857 -7.55144
0.825927 -4.57541 -9.34432
0.794507 -4.59913 -9.31928
0.774352 -4.80771 -9.50804
3.36658 -2.70298 -4.60777
0.964927 -4.70674 -9.4965
1.7829 -5.08781 -6.31385
1.80377 -5.37327 -8.76964
4.66779 -5.95288 -11.9761
0.781625 -4.76099 -9.62656
0.944072 -4.87312 -6.16427
4.32515 -5.3752 -5.1396
4.4453 -5.83834 -12.0406
6.77882 -6.02741 -10.9554
0.806745 -4.75736 -9.66851
-0.208098 -3.73347 -4.81785
2.11533 -5.36569 -7.75415
3.40356 -11.3089 -2.36642
-0.100475 -3.74203 -5.08376
0.611882 -4.81309 -5.23622
-0.101339 -3.86146 -5.42181
2.81202 -11.2128 -0.38448
-0.595854 -4.19922 -4.76809
0.236034 -4.40859 -7.2972
0.688464 -4.61841 -5.68982
-0.398671 -7.5265 -4.32804
-0.0528974 -3.92811 -5.65373
-0.0664549 -3.96692 -5.71205
5.06779 -3.83642 -8.95721
6.5856 -5.66025 -9.93219
-0.283673 -7.34819 -3.58654
0.653554 -4.89351 -7.44748
3.88582 -5.48602 -5.71869
2.36567 -5.46884 -11.2387
0.292563 -4.34341 -7.19789
0.3702 -4.24358 -7.47317
1.35199 -6.16718 -4.35844
-0.43977 -5.3601 -4.23128
0.375851 -4.23425 -7.48653
-0.381213 -3.8362 -4.62713
0.332585 -4.6317 -7.81126
1.49713 -4.91863 -5.9465
3.71524 -6.33585 -11.3826
3.40242 -14.7232 -4.75582
0.355708 -4.64943 -7.8546
3.48931 -3.16806 -7.07672
3.20535 -6.11784 -3.94433
3.92551 -5.70123 -8.07343
-0.110229 -6.66602 -4.66005
3.69813 -5.81565 -3.87447
1.0245 -4.63967 -9.0146
0.41958 -4.57511 -7.86855
3.55178 -14.9704 -5.42999
0.834723 -2.4998 -11.5863
0.45156 -4.34338 -7.96746
-0.654966 -4.2714 -4.61663
0.519778 -4.3469 -8.02511
1.20296 -4.69911 -4.86947
3.08628 -12.4158 -2.08288
6.15896 -7.05903 -9.32665
0.542337 -4.381 -8.20975
0.622636 -4.45448 -8.60568
-0.0289328 -4.40177 -6.93366
3.78862 -12.3129 -4.2623
1.50339 -5.32196 -8.82876
0.831035 -4.64383 -9.37361
6.16231 -7.46638 -9.73919
2.59179 -16.2052 -3.0164
2.67357 -14.5411 -2.10086
0.741237 -4.98086 -6.58992
0.301982 -5.39115 -4.77403
2.16289 -5.07791 -5.78225
1.6379 -5.42172 -4.48505
0.776351 -4.79968 -9.55453
4.07664 -5.73116 -6.70597
0.821703 -4.73457 -9.62614
6.76543 -4.08597 -10.5542
0.741408 -4.50321 -7.94774
3.03001 -8.2429 -3.52115
2.98236 -5.44674 -3.94498
-1.51891 -5.87246 -5.3226
5.56947 -5.6632 -6.27876
1.20278 -6.93275 -11.8296
2.42098 -5.52398 -8.34886
-0.097893 -3.75547 -5.15185
0.434265 -4.69742 -6.33634
-0.0840043 -3.78004 -5.20143
3.09504 -14.3375 -3.26185
-0.0487667 -3.89287 -5.53735
5.15529 -5.69778 -6.51895
1.9248 -5.51255 -4.34906
3.76893 -7.46628 -14.1728
0.904412 -4.803 -5.97134
0.224057 -4.39777 -7.20153
2.92637 -11.8638 -1.05545
2.57873 -5.55424 -12.7999
3.37241 -5.15287 -5.44774
0.312956 -4.39223 -7.29962
3.29702 -13.9265 -3.65514
3.97315 -6.8984 -10.6567
3.70131 -11.7827 -3.50404
3.85819 -8.69589 -2.31472
2.17057 -5.38256 -7.28663
0.979298 -5.16214 -4.62864
0.411328 -4.26849 -7.60382
2.59946 -12.4287 -0.319158
-0.203088 -5.37542 -4.86097
3.35535 -6.08272 -11.1072
0.542997 -4.33787 -8.15
-0.324422 -3.54995 -12.1844
4.27367 -3.7608 -10.1096
0.494866 -4.74128 -8.45782
0.499641 -4.76065 -8.47635
-0.32433 -4.89046 -6.86679
-0.478381 -4.68189 -4.54845
-0.301721 -5.25606 -4.59266
0.792996 -5.01706 -8.24807
0.656003 -6.9209 -4.34514
2.00312 -3.12607 -11.4228
2.24571 -5.35331 -6.93373
1.39316 -5.20792 -8.87252
3.99712 -7.78825 -3.18434
1.77209 -5.24481 -7.52353
0.840276 -4.76462 -9.54214
3.29198 -5.66299 -7.85758
0.656301 -4.37071 -7.71165
4.53981 -3.78748 -9.10387
2.53556 -5.46348 -6.25587
0.499854 -4.6787 -6.25595
3.22323 -6.30865 -11.3808
-0.152634 -3.65929 -4.87611
1.7512 -5.06503 -6.02215
2.57806 -15.255 -2.23374
-1.71735 -7.44045 -4.54424
1.13354 -5.22703 -8.90836
-0.0826551 -3.79129 -5.27222
-0.119207 -3.90722 -5.26577
0.133183 -4.30881 -5.09574
0.291598 -4.54435 -5.82762
-0.2355 -4.56937 -4.42699
3.72661 -5.40251 -6.57917
2.67896 -17.6767 -4.54313
-0.0307386 -3.89359 -5.52026
2.65752 -11.7904 -0.063519
0.00492851 -3.91498 -5.66395
-0.521866 -7.7881 -3.28247
0.977429 -5.16956 -9.04594
2.67463 -15.701 -2.83051
-0.00324015 -4.25084 -6.23208
2.92477 -6.90457 -3.79248
2.53025 -12.5351 -0.280623
0.00110107 -3.94961 -5.69433
0.0401418 -4.10314 -5.98987
2.78218 -13.3617 -1.81111
2.72717 -5.48886 -6.30913
1.48913 -7.9155 -3.87405
-0.0388243 -3.96011 -5.20114
1.87245 -3.73525 -1.52325
0.575169 -4.61073 -5.58073
3.20601 -8.85214 -11.8847
0.0410732 -4.10955 -6.07918
0.098225 -4.11103 -6.30239
0.122111 -4.02671 -6.2887
4.60635 -3.8203 -9.84711
0.16825 -4.38682 -6.80605
0.397799 -6.69778 -4.4389
1.63732 -7.00503 -2.45057
2.06414 -5.33383 -7.20556
2.92874 -5.13402 -4.84132
3.54078 -2.97659 -11.273
3.89999 -3.27823 -7.35524
-1.70648 -7.09973 -5.11671
0.385915 -4.24397 -7.11566
-0.373633 -3.53857 -12.1851
2.94109 -5.64418 -8.12194
0.108358 -4.4017 -6.81409
1.33027 -5.2026 -7.43845
0.481444 -4.37704 -7.98051
3.8809 -6.24783 -10.9971
-0.583832 -4.84064 -4.44252
0.570409 -4.38479 -8.17325
0.514656 -4.3769 -8.18509
2.64258 -12.203 -0.375309
0.628037 -4.43113 -8.57829
3.60924 -2.82792 -5.1104
0.46994 -4.58522 -5.74345
1.67246 -4.45192 -1.3625
4.69796 -7.08671 -11.161
2.93839 -11.4637 -0.885905
2.31013 -5.50091 -8.00595
6.41459 -7.17264 -10.7046
0.647292 -4.41934 -8.66304
0.480985 -4.4545 -7.82486
2.86894 -15.5472 -3.43159
1.94144 -4.93348 -4.88309
0.68487 -4.49364 -8.73151
2.78461 -15.53 -3.11883
4.57164 -6.76485 -11.048
0.697951 -4.69877 -9.027
0.533823 -4.44208 -8.72061
0.750072 -7.59117 -4.23279
-1.51997 -7.67815 -4.16066
1.04464 -7.7338 -4.09395
3.86191 -6.32854 -10.9247
3.28349 -13.5771 -3.28324
-0.553528 -7.75512 -4.27935
3.11034 -5.62939 -3.98337
0.730322 -4.64439 -9.06653
3.90492 -5.57017 -6.11525
0.775691 -4.60572 -9.15146
1.18402 -4.67252 -4.66697
2.64161 -5.576 -8.34937
2.67925 -5.46563 -6.94686
-0.155576 -8.95811 -2.75957
0.372844 -4.31953 -6.99733
0.8247 -4.75706 -9.47201
1.36741 -5.19079 -9.17989
0.856701 -4.73724 -9.55643
2.40949 -8.57358 -10.9446
0.864293 -4.7069 -9.64518
3.36296 -5.64208 -7.38798
-0.218609 -3.76199 -4.74231
1.74062 -7.97517 -3.87275
-0.184963 -3.99832 -4.49815
-0.132836 -3.70433 -4.768
3.53668 -5.60111 -3.97527
-0.203382 -3.81727 -4.77233
3.76483 -3.117 -6.3089
-0.127122 -3.68239 -4.93992
2.15646 -6.57501 -0.945181
0.848673 -4.97902 -7.35332
3.05476 -5.50772 -7.05173
-1.95694 -7.56816 -4.61717
3.17577 -5.27105 -4.01381
-0.0477488 -3.87895 -5.37641
-0.765628 -4.86525 -4.74301
-1.39664 -5.02881 -6.18423
3.73248 -5.70527 -7.61872
-0.0466517 -2.86712 -11.942
0.0477871 -3.96167 -5.72042
3.47196 -8.10322 -11.3664
0.0601514 -3.96892 -5.80655
3.12804 -12.069 -2.00836
2.22902 -5.38138 -11.0586
0.0284188 -4.04445 -6.00709
3.09992 -11.7256 -1.74745
0.800259 -4.57853 -8.84347
3.76411 -3.03462 -5.66801
1.57489 -5.40762 -8.71061
0.0321306 -4.16901 -6.13838
-0.239321 -9.02721 -2.66433
0.0741008 -4.11073 -6.15181
1.20612 -5.08827 -8.33632
2.75385 -5.63975 -11.453
0.0343338 -4.17826 -6.13464
0.0819479 -4.10555 -6.21706
3.74935 -7.77622 -11.8054
0.136245 -4.27716 -6.61193
0.169195 -4.20988 -6.71247
3.97021 -10.8997 -3.79442
2.98213 -12.8579 -1.92221
-0.139196 -9.12487 -3.44574
2.51608 -5.55494 -4.22513
2.34341 -5.48232 -8.53758
3.39434 -12.8086 -3.12179
-0.380354 -5.23001 -4.26226
4.10709 -5.49674 -5.14599
0.223956 -4.22909 -6.85595
1.4724 -5.12383 -7.4086
0.19258 -4.31029 -6.82278
2.9015 -14.2884 -2.6276
6.31967 -7.36995 -10.4499
0.722475 -7.45739 -4.29512
0.169625 -4.2437 -6.83457
1.91893 -4.88285 -4.78468
3.02632 -7.60785 -11.8473
0.236314 -4.19154 -6.89411
3.94192 -8.69837 -2.68584
1.49738 -4.86542 -5.2011
3.10434 -5.572 -6.45204
6.57582 -6.19538 -10.4349
0.330819 -4.28231 -7.23984
1.14354 -7.42233 -4.18293
1.21491 -5.30573 -7.98839
2.87908 -12.2298 -1.21648
4.33233 -5.40766 -5.24381
1.83174 -6.39515 -0.923589
-0.962687 -4.93185 -8.57157
0.339672 -4.31571 -7.30833
3.70032 -10.3556 -2.7058
-0.26891 -9.17893 -3.04095
0.460516 -4.53076 -7.93542
2.46322 -14.8487 -1.58224
-1.82127 -5.95361 -5.93097
6.16769 -6.74538 -9.06432
2.41965 -5.16076 -5.95281
0.509951 -4.33256 -8.09043
2.20673 -7.61149 -0.604432
5.71128 -3.85941 -10.7791
2.02502 -5.60437 -11.1694
2.47509 -16.9769 -3.17368
0.574617 -4.46026 -8.19423
0.67804 -4.72748 -8.93403
3.51474 -10.3223 -2.14715
3.02983 -11.6335 -1.43923
3.10007 -8.26672 -10.7955
0.724117 -4.63385 -9.10558
-0.815808 -4.59279 -5.90565
0.441206 -4.29233 -7.30988
0.794197 -4.57851 -9.27903
2.23894 -6.3532 -10.3998
0.164559 -4.47018 -5.3874
-2.21849 -5.67338 -6.08665
3.20353 -13.2049 -2.74255
3.18264 -14.0149 -3.22649
2.52441 -8.5207 -11.013
3.78581 -5.28925 -4.3187
2.39455 -10.8532 0.116209
6.23139 -8.44063 -10.6859
3.25119 -5.50793 -6.96257
0.810407 -4.72951 -9.54082
0.865389 -4.52325 -8.43018
0.873342 -4.68805 -9.56858
0.694868 -6.51547 -4.42275
0.262287 -4.21394 -6.6878
0.554046 -5.75564 -4.61433
-0.471274 -21.0215 -4.82242
2.76953 -6.97745 -3.73115
3.71124 -11.6423 -3.40005
2.60059 -11.8645 -0.019941
0.891989 -4.74973 -9.65933
0.667761 -4.56005 -6.3468
2.56661 -5.27564 -4.268
0.669227 -21.1396 -4.04422
-0.378033 -4.08475 -5.8556
1.26355 -4.94868 -6.58516
4.94961 -3.54859 -10.8965
2.59828 -4.74967 -12.853
3.22162 -5.28369 -5.46421
-0.0748725 -3.74244 -5.02242
-0.0713264 -3.86245 -5.24731
-0.767701 -5.98895 -4.39192
0.890691 -5.08686 -8.62157
6.69996 -4.96357 -9.31524
1.88628 -4.99732 -1.22623
-0.114858 -3.94916 -5.32287
2.29941 -7.46021 -3.85108
1.00135 -4.66164 -9.33617
0.151955 -4.43089 -7.34742
0.262198 -3.99843 -5.97786
-0.335349 -5.08837 -4.56941
1.69062 -4.33396 -1.41602
2.69039 -9.79776 -0.163509
3.88219 -5.50279 -6.96907
-1.66614 -6.19587 -7.92418
0.0628826 -3.98745 -6.0151
0.916791 -9.20731 -2.83112
0.107136 -4.03707 -6.20335
4.12261 -4.75279 -10.9752
0.210702 -4.06267 -6.37175
0.210834 -4.07614 -6.44733
1.91069 -5.19211 -6.45373
5.98038 -7.859 -9.48718
2.89727 -11.2653 -0.650782
1.7012 -4.96114 -5.55354
4.07861 -3.30934 -7.46187
-0.624202 -7.6038 -4.42166
2.04404 -6.10108 -4.19481
2.21087 -5.39924 -7.84109
0.683578 -4.74417 -8.99657
2.82629 -17.4613 -4.75226
0.220539 -4.18056 -6.7764
1.41677 -4.85977 -5.69436
0.139564 -4.42297 -5.29655
0.262634 -4.17863 -6.81096
0.388066 -4.26921 -4.79749
-1.19215 -7.25591 -4.02437
4.18655 -7.86145 -3.05944
-0.804646 -6.36234 -4.16977
1.0051 -5.16326 -8.59717
0.310264 -4.27703 -7.19205
0.340403 -4.30966 -7.26462
-0.232697 -4.04734 -5.7619
2.75742 -13.0325 -1.52234
0.423155 -4.46977 -7.79022
4.278 -5.70361 -6.39487
1.43074 -5.03777 -6.94688
1.27281 -5.25408 -7.67692
5.9632 -7.91275 -9.2182
2.9661 -8.16469 -3.59015
0.642657 -4.92348 -6.00182
3.69333 -2.74723 -4.41432
0.708847 -4.5942 -8.81666
5.43211 -7.06455 -11.1696
4.74935 -8.06892 -11.5412
0.705812 -4.65032 -8.89825
3.26399 -13.2266 -3.02255
0.736781 -4.63309 -9.00675
3.04109 -6.94643 -3.88951
4.19851 -3.71032 -9.79658
-1.95912 -5.6571 -6.17215
0.836618 -4.58495 -9.32668
3.14414 -5.92992 -11.1806
3.51134 -12.655 -3.6042
0.868494 -4.66678 -9.39354
3.43799 -8.89285 -11.7873
-0.876383 -5.40388 -4.38402
-0.323861 -5.78833 -4.72139
0.765367 -4.70813 -5.45074
0.135575 -3.99958 -5.72373
-0.337776 -21.0323 -4.37024
2.89024 -6.55382 -10.7044
0.921113 -5.09013 -4.677
2.39493 -5.5227 -8.69837
6.16305 -7.06031 -9.28639
0.827967 -4.62746 -9.44435
4.33781 -5.42816 -5.23514
0.848365 -4.72489 -9.50928
-0.131375 -3.64812 -4.64683
2.47428 -7.76418 -10.5091
2.89919 -5.75667 -11.1511
2.16691 -8.05541 -3.77454
3.36233 -14.9812 -4.69863
0.327521 -4.23489 -4.76145
3.15065 -5.51509 -7.13093
-0.0625764 -3.7097 -4.69915
3.35427 -10.8653 -1.89524
1.92431 -7.68724 -3.90401
0.91688 -5.01245 -7.76579
3.03459 -5.53497 -7.33277
-0.220686 -3.6503 -4.69877
3.62963 -9.47366 -1.87063
-0.0723424 -3.73139 -5.07251
0.975489 -7.91051 -4.03204
-1.14028 -4.42763 -5.76054
3.29542 -5.57256 -7.20439
2.77931 -5.26584 -4.19058
-0.044909 -3.90837 -5.22197
0.845694 -4.52622 -8.17352
2.67607 -2.40496 -3.57148
0.923654 -5.04032 -7.98536
0.0192116 -3.8879 -5.52233
3.06279 -5.63512 -8.03988
2.23826 -5.23471 -11.0837
3.02794 -11.122 -0.769736
2.74038 -5.58505 -8.51573
0.851901 -4.58271 -9.30184
3.46082 -3.14847 -6.8291
-0.197591 -6.84498 -4.4251
0.165404 -4.12814 -6.25687
0.301179 -4.16326 -6.9208
-1.64239 -6.98123 -5.09558
1.3006 -5.34935 -8.043
3.02682 -12.3366 -1.82947
0.402325 -4.30585 -7.31629
3.49165 -5.71718 -7.72714
1.40089 -5.11207 -7.39663
3.55152 -5.46988 -6.73021
0.330916 -4.29053 -7.38145
2.36252 -7.62303 -3.64829
2.83312 -7.92683 -10.343
0.76237 -4.37448 -7.72261
0.872619 -4.71187 -9.36545
2.18223 -8.50299 -11.0588
2.81291 -5.08195 -4.8233
0.00964776 -4.13809 -5.10252
1.09393 -5.02724 -6.83462
6.12426 -4.62139 -6.93787
3.69763 -11.8874 -3.69795
0.8707 -4.70499 -5.24617
2.75756 -5.45478 -6.03653
0.404641 -4.32931 -7.42636
5.98795 -3.89292 -10.7737
3.3308 -5.64783 -7.74634
0.467923 -4.2634 -7.45126
0.493033 -4.26139 -7.55309
0.450546 -4.26678 -7.57264
3.92954 -5.56495 -7.27119
4.34695 -5.66748 -6.19558
3.51507 -6.3005 -3.85508
2.58366 -5.5858 -4.1662
1.13931 -5.13031 -8.50795
2.03627 -5.31248 -7.10911
3.35699 -11.78 -2.35699
0.65132 -4.87338 -6.62862
0.454305 -4.33322 -7.62852
0.144282 -6.01855 -4.72737
0.927023 -4.91259 -7.13705
0.60951 -4.39917 -8.00566
0.208591 -4.1197 -6.41148
4.22297 -3.21277 -6.14524
6.82116 -4.04008 -10.537
2.71373 -4.83192 -11.2835
0.588334 -4.62343 -8.40683
2.38086 -14.8963 -1.51096
-0.767742 -7.1027 -4.27413
0.673806 -4.54306 -8.77748
2.63459 -12.1336 -0.322372
-0.022988 -4.07476 -5.00087
4.03925 -8.21473 -2.4564
1.68987 -6.1386 -10.9304
3.78434 -5.49442 -5.44304
0.458172 -4.4782 -7.96857
0.375833 -9.05411 -3.06648
0.820966 -4.57517 -9.12969
1.73613 -5.00165 -5.74271
-0.131195 -3.6565 -4.70715
0.926232 -4.70065 -9.5692
1.4641 -5.49848 -8.52664
-0.941417 -5.0487 -8.5777
-0.528301 -7.42931 -4.4734
2.56817 -11.1954 0.036913
3.17819 -14.0023 -3.37584
0.0404782 -3.87915 -5.62452
0.288888 -8.89233 -3.10136
0.0780253 -3.89091 -5.62992
0.158328 -4.03107 -6.04517
2.93813 -11.9316 -1.05752
7.06089 -4.35503 -10.351
2.50337 -5.20295 -5.75111
-1.64416 -5.40528 -6.19324
0.141893 -4.02656 -6.07767
0.134779 -4 -6.08831
3.32619 -5.04588 -4.842
-0.285543 -6.22879 -4.64892
1.60903 -5.35498 -8.52158
0.263239 -4.28202 -7.39443
0.170625 -4.02834 -6.10828
3.27075 -7.76619 -11.6018
6.02032 -9.26876 -10.8268
0.139056 -4.06011 -6.23138
2.26208 -15.3186 -2.18003
6.04891 -4.10734 -8.69892
1.28009 -4.64584 -4.74834
0.916235 -4.71577 -9.26042
1.32671 -5.19567 -7.83822
2.40254 -5.38299 -6.28521
1.47106 -4.77955 -4.89038
0.1706 -4.07242 -6.33469
2.58396 -5.53789 -6.86447
-0.841683 -4.5682 -6.01878
2.14765 -5.43471 -7.99642
0.222835 -4.09964 -6.46571
1.04594 -5.19709 -9.0395
0.20967 -4.20981 -6.59525
0.252367 -4.17548 -6.72738
-0.326576 -6.91535 -4.48074
2.80126 -5.5909 -8.38902
3.36163 -5.7815 -3.97748
3.75964 -12.2315 -3.93702
0.159497 -4.02621 -5.71139
0.676832 -7.42462 -4.29182
0.333266 -4.25937 -7.01013
6.25852 -7.04829 -9.76192
0.463578 -4.8123 -5.37825
0.365606 -4.26629 -7.02118
4.52174 -3.15923 -11.1856
3.64523 -11.0959 -3.1768
0.377151 -4.21899 -7.03214
0.391089 -4.28765 -7.33941
0.504425 -4.31737 -7.54987
3.53722 -12.1606 -3.13797
5.54227 -5.88941 -7.3625
3.14394 -12.9579 -2.57423
1.96356 -6.19535 -11.4324
4.33465 -6.93243 -11.1847
0.972594 -5.20095 -8.88472
1.21324 -6.1681 -10.8652
3.28412 -14.5715 -3.96847
2.6235 -5.57461 -11.5712
3.20337 -12.5072 -2.5434
3.79418 -5.33448 -4.6959
0.507234 -4.36545 -7.66705
4.3583 -6.98644 -11.1573
3.59696 -11.854 -3.2188
1.71499 -5.25596 -9.10544
0.464624 -4.41795 -7.74169
6.34059 -7.20696 -10.1742
2.39429 -5.45899 -7.04003
3.597 -5.90474 -11.167
0.863505 -4.72218 -6.25857
1.23426 -5.13603 -8.22
2.69125 -5.46795 -6.95503
4.97476 -5.59521 -5.92106
2.51058 -5.38196 -7.1157
2.69321 -4.75992 -11.3376
0.452295 -4.46402 -7.7431
1.18113 -5.29217 -8.65433
2.6493 -5.41608 -6.28795
1.97339 -5.3985 -8.33598
-1.00242 -5.89269 -8.27936
0.515739 -4.47823 -7.78319
1.53538 -5.10152 -1.35914
1.76686 -6.10451 -11.0164
0.527183 -4.42689 -7.9297
4.07692 -5.28087 -4.40936
0.28254 -4.24181 -4.86861
4.71157 -6.71709 -11.0955
2.50787 -6.37383 -11.7581
0.65829 -4.51445 -8.49834
4.12843 -3.6809 -8.45262
0.708783 -4.47697 -8.53636
3.63199 -3.35004 -7.76239
0.62768 -4.59815 -8.40509
0.733956 -4.50596 -8.55262
-2.26754 -5.66363 -6.20191
0.143564 -4.43804 -5.66361
0.963531 -4.71558 -5.45631
3.21985 -2.91102 -5.83323
2.48733 -8.53347 -11.0167
0.773491 -4.59402 -8.94738
3.97576 -5.36932 -4.53327
-0.0431914 -3.88113 -5.19977
4.82533 -5.78976 -6.99855
0.199121 -4.07896 -6.21807
2.25921 -7.67392 -10.4895
6.35149 -7.05488 -10.15
2.83807 -2.35678 -3.81097
4.27535 -5.25126 -4.47376
-0.939307 -5.73652 -5.24204
0.379488 -4.22052 -7.12224
1.67062 -5.38611 -8.62971
2.76258 -12.16 -0.9004
6.0938 -8.03361 -9.99856
3.32078 -13.1624 -3.15446
1.82704 -5.12735 -6.42904
0.507405 -4.26923 -7.55237
0.480965 -4.44275 -7.7676
4.43688 -5.52748 -5.67937
3.09048 -7.87591 -3.58042
2.4746 -4.92118 -4.47987
0.0568386 -4.19462 -4.98069
1.56441 -5.02719 -6.19127
0.58746 -7.67702 -4.21981
0.425622 -4.59713 -5.86598
2.85889 -11.5209 -0.601197
0.568043 -4.3483 -7.98766
2.84443 -5.99031 -3.8608
2.90801 -5.36072 -4.01291
1.57352 -5.37333 -8.52936
1.31936 -5.85756 -1.18751
4.3352 -5.72913 -6.412
6.15096 -5.3509 -7.96324
0.591644 -4.39952 -8.14797
4.24311 -8.99075 -11.5383
0.6598 -4.56783 -8.36526
0.771813 -4.84631 -4.708
2.90973 -5.2371 -5.51229
0.630375 -4.57711 -8.50688
3.01868 -13.4564 -2.46546
5.76889 -5.9821 -7.53998
0.760902 -4.47692 -8.55837
-1.34315 -5.79522 -5.57656
3.50755 -12.636 -3.33824
2.66348 -8.5311 -10.962
0.830028 -4.57467 -9.18836
2.25056 -6.63782 -4.05087
3.07252 -15.9705 -4.30499
0.923657 -4.67876 -9.51416
2.66373 -16.3068 -3.19526
5.92684 -5.99995 -7.84063
3.19437 -5.9251 -3.99359
2.3312 -6.27186 -12.4064
1.86119 -9.74348 -0.287557
0.973388 -4.74712 -9.62991
1.44261 -5.31602 -8.93678
3.50364 -5.21894 -5.16239
-0.112356 -3.75838 -4.80125
0.0160909 -4.22422 -4.90124
2.07468 -5.28338 -7.14196
0.53836 -4.67044 -6.22834
2.85945 -14.8118 -2.89303
0.360127 -4.62396 -6.1497
0.103838 -3.95981 -5.75431
2.38726 -5.52547 -8.27128
2.86654 -2.61528 -5.23237
0.929857 -4.65256 -5.26777
0.197533 -4.02998 -6.15321
0.284339 -4.13204 -6.61803
-1.61807 -6.12789 -8.14046
0.485073 -4.29576 -7.48597
1.2011 -5.36689 -7.89676
3.21925 -13.8294 -3.2825
3.45063 -3.09896 -6.81907
0.553604 -4.37621 -7.67825
3.55168 -12.3854 -3.35843
2.52465 -5.09206 -5.6081
0.524867 -4.37493 -7.69262
0.0747985 -9.16526 -3.46767
0.0479142 -4.3871 -5.37417
2.33632 -5.00881 -5.07924
3.40261 -5.54667 -6.67614
-0.660822 -8.45062 -2.82149
0.264824 -3.88369 -5.57726
-1.06109 -7.7614 -4.04566
0.628415 -4.5689 -7.4996
2.02079 -5.24621 -6.60158
1.91544 -5.10883 -6.22218
3.73629 -12.096 -4.06367
1.3448 -9.60932 -0.433175
1.89792 -5.31775 -7.84194
0.716954 -4.48743 -8.51589
0.481916 -4.75976 -7.05643
4.50487 -3.62667 -8.53221
0.857516 -4.60512 -9.24845
2.66738 -13.0245 -1.03091
6.17669 -5.82698 -8.48549
-0.287548 -5.27991 -4.82196
0.709252 -6.53376 -4.43929
0.468231 -4.56932 -4.6816
3.3349 -5.05936 -4.94245
2.33198 -4.87503 -4.43419
-0.125181 -3.64963 -4.65146
0.983508 -4.6422 -9.06009
2.6214 -12.451 -0.355918
-1.55268 -6.37766 -5.60464
0.970918 -4.64039 -9.41298
6.64029 -5.65762 -10.2291
3.52681 -5.23994 -5.2462
0.227928 -4.48403 -5.18529
-0.112794 -3.72703 -4.84376
1.29022 -4.87982 -6.17546
2.6946 -15.475 -2.77509
-0.0635728 -3.70335 -5.01683
2.78137 -5.47707 -7.44696
1.18992 -4.79302 -5.56504
-0.0479327 -3.70824 -5.0519
-0.0591215 -3.81258 -5.15224
-1.32177 -5.67161 -5.77888
-0.0150735 -3.9354 -5.27377
-0.074094 -5.42796 -4.75954
2.91966 -2.40801 -3.13736
0.753451 -4.80556 -6.25342
4.25965 -6.94206 -11.1526
3.26227 -11.1432 -2.10739
2.72007 -17.0723 -3.88957
0.76164 -4.42767 -7.83799
1.85888 -4.9972 -11.8532
0.046468 -3.83123 -5.40735
6.17626 -8.21451 -10.3451
4.13469 -5.79097 -6.97733
0.144384 -4.01839 -5.9278
6.12272 -7.91524 -9.96611
3.34353 -13.7177 -3.74791
2.55524 -5.31977 -11.7248
3.45986 -7.6505 -3.3539
0.456469 -4.74227 -6.8977
0.251745 -4.0836 -6.26087
2.04378 -5.11151 -6.02655
0.240214 -4.51299 -5.62507
5.15203 -6.3914 -12.0241
0.244507 -4.11368 -6.32794
0.384568 -4.37086 -4.843
3.83994 -7.98767 -11.4831
0.594655 -4.76197 -6.73693
2.13878 -6.43815 -4.13165
4.36404 -8.00115 -11.6076
1.97709 -5.07005 -5.48102
0.241519 -4.17051 -6.39104
2.92479 -16.5904 -4.21181
3.47008 -12.6344 -3.27067
4.11579 -5.93772 -14.4857
3.03929 -2.48367 -3.53202
2.22736 -15.2183 -1.20195
0.261761 -4.17138 -6.4849
0.360081 -4.22229 -6.81759
1.52565 -5.05857 -6.51125
2.00496 -5.40778 -8.16304
1.96381 -4.98993 -5.09251
0.419848 -4.74005 -6.82651
0.0933284 -9.28153 -2.5503
-0.575528 -4.49943 -5.89921
0.593715 -4.8356 -7.21934
0.318927 -4.25 -6.98558
2.99432 -12.0092 -1.44914
0.741027 -4.9521 -7.76826
0.463261 -4.29049 -7.35111
0.439833 -4.31006 -7.00736
2.774 -6.52348 -10.811
2.67887 -15.1179 -2.39811
2.05785 -4.16677 -11.4227
0.702147 -4.71786 -5.4242
3.19989 -4.99671 -4.34077
0.465627 -4.35629 -7.55542
0.569224 -4.34304 -7.7363
2.65676 -5.49465 -12.5458
3.46902 -14.1211 -4.41933
0.553321 -4.42668 -7.83785
0.197695 -4.25017 -5.81565
3.28458 -7.98119 -10.2657
0.665151 -4.45148 -8.20294
4.92302 -3.79749 -10.9423
2.36207 -19.3654 -4.65712
1.00849 -5.1431 -8.40909
0.601018 -4.4829 -8.26918
0.642525 -4.52398 -8.31904
0.878165 -4.61405 -9.21707
3.68518 -5.22228 -4.06247
2.95557 -13.5771 -2.3956
0.874908 -4.62959 -9.28934
4.77331 -5.63704 -6.4043
0.785053 -7.80612 -4.13272
3.85214 -5.48791 -5.33942
0.928361 -4.63901 -9.35422
-0.0222107 -3.71376 -5.03496
-0.656515 -8.47493 -2.86216
3.85654 -3.19688 -6.82736
5.00294 -6.3372 -10.9405
1.56716 -4.84421 -5.13902
3.65235 -3.00348 -5.99138
3.27907 -10.4957 -1.09547
-0.0223019 -3.73426 -5.15675
0.0790039 -3.8855 -5.49689
1.27837 -5.16129 -7.51084
1.5168 -4.87229 -5.09861
0.164518 -4.0259 -5.96449
2.30408 -5.72389 -4.24062
3.6973 -3.29384 -7.92778
2.73782 -5.47038 -6.93966
0.00172227 -9.13829 -2.62344
2.57028 -6.37737 -3.85383
3.44957 -7.50294 -3.40953
0.228373 -4.17963 -6.36086
6.57479 -6.52948 -10.7807
0.510155 -4.68638 -5.49154
0.271259 -4.17275 -6.40371
0.306575 -4.09791 -6.4758
2.27519 -8.51033 -10.9531
-1.41303 -6.81347 -5.39353
1.79543 -5.33759 -8.48148
-0.837929 -6.10504 -7.96223
3.6588 -11.2472 -3.12979
2.93912 -12.5653 -1.63463
4.73259 -3.63364 -7.85539
0.571949 -4.40207 -7.92552
0.712184 -4.52093 -8.43961
1.36762 -5.30703 -8.81915
0.985681 -4.7188 -5.44198
-1.86279 -5.61981 -6.24801
0.557709 -4.78853 -6.97306
0.929606 -4.66261 -9.38108
3.52397 -5.45861 -4.0051
3.06946 -10.1944 -0.410589
-0.0593508 -7.45337 -4.59497
2.02718 -4.93878 -5.0965
0.48959 -4.58864 -4.76966
3.28462 -5.5348 -7.09258
0.92689 -4.67518 -9.42248
1.79525 -5.08604 -11.8004
0.00432621 -3.69672 -5.11321
1.94985 -4.92383 -4.47577
0.106631 -3.92295 -5.64314
6.12558 -6.32039 -8.52408
3.08625 -4.91881 -4.47832
3.5294 -5.43808 -6.59198
0.210943 -4.04014 -6.03006
1.27204 -5.05683 -7.10123
-0.826295 -5.46629 -4.39729
3.21869 -4.99186 -4.99882
6.32869 -5.94715 -9.02318
0.295285 -4.6348 -6.17861
-0.148323 -4.58177 -4.95513
1.78462 -5.32672 -8.32023
0.24747 -4.20443 -6.37278
2.95162 -5.05124 -4.6099
0.268988 -4.13097 -6.50485
1.53624 -6.19678 -12.6245
1.20075 -7.08581 -4.22849
5.20601 -3.73779 -10.8628
0.383673 -4.22195 -6.92223
-0.0756693 -3.74547 -4.74193
0.521235 -4.31144 -7.47068
1.22906 -5.35344 -7.87402
0.375044 -4.93246 -9.1561
3.5351 -9.96016 -1.84158
0.716554 -4.39887 -7.94376
2.66341 -6.65024 -0.815986
0.452235 -4.36878 -7.56323
0.788214 -4.9927 -7.93443
-1.52272 -6.49483 -5.49657
0.565908 -4.4283 -7.84986
0.796681 -4.70995 -6.21442
3.47882 -5.62177 -7.22506
1.47935 -5.20891 -7.86409
6.11099 -7.27097 -9.37727
0.700183 -4.51435 -8.38521
3.50915 -12.659 -3.43713
4.35796 -3.79514 -9.47773
0.704223 -4.53967 -8.36027
-0.199019 -5.22839 -4.81385
0.386513 -5.42304 -4.74544
1.20461 -7.02949 -11.8237
0.702517 -4.53987 -8.43105
1.17958 -5.21547 -7.6841
-1.7447 -7.51614 -4.43336
0.29261 -4.7507 -13.1804
3.54248 -2.87306 -5.4738
0.75187 -4.50812 -8.53928
0.817716 -4.63126 -8.97241
3.22836 -13.3114 -2.93319
5.19065 -3.84053 -10.8915
2.02549 -4.84995 -4.59052
1.97676 -5.95043 -4.32045
-0.724909 -5.67686 -8.14939
3.33246 -10.695 -1.92128
0.0915146 -3.86668 -5.4962
1.00505 -9.23521 -2.54056
0.863389 -4.59886 -9.01272
1.21024 -5.15618 -7.41914
3.6623 -6.02475 -3.86648
3.39344 -3.07003 -6.60504
1.1053 -5.26634 -7.84295
3.48827 -6.22189 -11.0293
0.956036 -4.67844 -9.47785
1.49249 -5.24261 -8.90524
5.74034 -5.67874 -6.95254
2.72396 -15.1975 -2.6327
4.6613 -3.58842 -10.9274
2.64847 -17.2539 -3.99465
2.70522 -5.03108 -4.57661
0.0175697 -3.97739 -5.37604
4.92087 -6.16517 -11.0213
2.06687 -6.42674 -10.6521
-1.01578 -5.50772 -4.67047
3.03481 -16.2803 -4.52671
4.54656 -5.73162 -6.67118
-0.210687 -4.68315 -4.72713
0.0941007 -4.05515 -5.78209
3.17781 -14.7295 -3.95557
-0.817219 -5.70927 -8.23599
0.904991 -5.09332 -8.53701
3.33564 -15.5078 -5.09661
3.88613 -5.53264 -5.76001
2.10437 -5.40447 -7.56929
-0.510566 -5.66509 -8.03337
2.70338 -12.9704 -1.20006
6.01726 -9.34069 -10.6808
0.869098 -4.77183 -5.77261
-0.919388 -6.60437 -4.12617
0.300151 -4.05712 -6.1787
4.23201 -5.2559 -12.1673
0.351451 -4.2576 -6.49553
0.336361 -4.17695 -6.52506
0.452858 -4.25232 -7.07837
1.47048 -7.49658 -0.852466
-0.989346 -6.68907 -4.14576
6.23427 -6.46126 -8.99334
1.72393 -4.6476 -10.699
1.28856 -4.97887 -6.78953
6.14799 -4.59702 -6.94596
1.99158 -5.03052 -5.87242
2.25316 -5.44687 -11.9949
4.21189 -3.63321 -9.23491
0.450011 -4.25324 -7.14839
0.893229 -5.0713 -7.31129
2.40373 -6.34196 -11.9102
3.64115 -5.25635 -4.23786
0.505533 -4.40929 -7.52587
0.931964 -4.61436 -9.12693
1.78191 -4.93491 -4.93263
1.05105 -4.68318 -9.59965
0.84771 -4.73191 -6.98056
2.38764 -5.22938 -12.5312
2.67436 -12.9112 -1.08708
-0.0606925 -4.06708 -4.99531
3.25371 -8.29402 -10.8123
3.20646 -14.3724 -3.69001
-0.0315025 -3.96457 -5.15538
-0.336411 -4.55076 -6.3556
3.71103 -10.1349 -2.6716
0.272287 -4.10181 -6.26238
2.19222 -6.50106 -0.903877
-0.2186 -7.8498 -3.07941
2.13859 -5.99177 -10.745
1.69137 -6.83993 -4.12438
0.355022 -4.18435 -6.73358
3.31394 -11.104 -2.16211
3.19539 -11.6255 -1.93999
-1.71836 -5.4915 -6.17347
0.374083 -4.3061 -6.92716
2.98026 -11.5767 -0.827022
0.474088 -4.27257 -7.20912
2.32209 -5.47725 -8.08531
0.494656 -4.28637 -7.26331
-0.97734 -7.27063 -3.9865
5.33234 -5.19067 -10.7375
0.591419 -4.3862 -7.69576
0.611244 -4.38658 -7.69138
2.46324 -5.22976 -4.33347
3.44019 -10.0927 -1.36882
1.3155 -5.10217 -7.20792
0.945556 -2.56238 -11.6075
0.195604 -3.91271 -5.69443
2.39043 -5.47572 -6.81926
3.22031 -5.67113 -8.04352
4.22704 -6.73127 -11.6488
3.53031 -9.88275 -1.62567
4.22426 -5.70935 -6.43452
1.76286 -7.76511 -3.92365
2.07746 -5.41868 -8.56193
0.67416 -4.45414 -7.97831
0.691648 -4.46786 -8.23966
2.98801 -12.741 -2.01553
5.54305 -5.8044 -6.62354
0.667708 -4.49265 -8.33563
2.81526 -14.6288 -2.59934
3.11981 -8.80141 -12.1126
1.10782 -5.13888 -9.28279
3.44467 -10.5544 -2.48514
2.53314 -5.53666 -6.842
1.2143 -4.75829 -5.20821
0.858326 -4.5778 -8.73636
1.37796 -6.18562 -10.8371
0.873221 -4.65837 -9.15273
0.956308 -4.60362 -9.26052
3.28493 -5.91054 -13.0978
2.83137 -4.23984 -12.7614
3.9164 -8.78476 -2.51985
2.48229 -5.57858 -8.65422
1.37871 -7.35941 -0.881857
1.38153 -4.80806 -11.0965
2.01748 -7.56024 -10.5784
3.99209 -5.29117 -4.43619
-0.0438338 -3.8709 -4.81917
2.80433 -5.51889 -7.34165
0.0264832 -3.75364 -5.05561
4.06666 -3.73926 -9.54282
2.00267 -5.91331 -4.22999
3.99089 -5.71986 -8.19839
-0.0738498 -4.07963 -4.98639
1.11511 -5.02445 -7.64309
0.429206 -4.58138 -4.64992
1.67144 -5.06483 -6.68736
-0.0882498 -4.04691 -5.03705
2.84971 -15.3374 -3.14383
-0.0357485 -4.05579 -5.12725
2.85746 -12.2864 -1.0982
6.50967 -6.61368 -10.4149
2.13793 -4.96347 -5.15566
3.06286 -2.65064 -5.15061
1.55577 -5.06008 -6.63633
2.81458 -5.18794 -5.24477
3.65949 -5.2445 -4.05899
0.0115713 -3.96028 -5.251
6.62812 -5.61942 -9.83422
1.87409 -7.44174 -3.9741
0.144827 -3.86301 -5.50516
1.64251 -7.57909 -4.04053
2.19949 -5.45179 -8.00338
0.146701 -3.91342 -5.67706
0.158966 -4.09666 -5.89944
-1.09162 -6.01691 -8.1902
-1.28205 -5.80056 -5.57663
3.10356 -10.859 -0.955679
5.84513 -6.01051 -7.63978
0.269068 -4.0079 -5.92572
6.61699 -5.70462 -10.3249
0.470353 -4.72952 -7.05939
2.5371 -12.4474 -0.31297
3.64281 -10.0182 -2.42481
1.37707 -6.6773 -10.4876
2.84641 -15.258 -3.04127
6.5782 -5.92359 -10.3279
0.278311 -4.09142 -6.2861
5.80339 -3.98113 -10.8042
0.382663 -4.1682 -6.64192
2.48797 -5.36247 -11.7392
0.772953 -4.91835 -7.65977
3.83554 -3.26491 -8.54103
6.75065 -4.93878 -9.71868
3.58521 -7.85297 -11.5534
0.375398 -4.20072 -6.7442
3.15339 -2.78316 -5.41665
3.85213 -3.31082 -8.54356
0.126558 -4.26428 -6.88181
0.400577 -4.19384 -6.78925
1.90787 -5.38961 -4.40836
0.496648 -4.17384 -6.79165
0.411707 -4.20245 -6.82679
3.8381 -5.97954 -14.5343
1.10894 -5.13869 -8.54115
0.313128 -4.54958 -5.859
0.429666 -4.76919 -6.59623
3.41426 -8.18498 -3.22999
0.54175 -4.4574 -7.50471
6.17944 -5.73056 -8.20658
0.747892 -5.02983 -6.62761
0.618951 -4.36019 -7.77252
0.689508 -4.51375 -8.20262
0.758907 -4.51296 -8.31563
4.63241 -5.61445 -6.11824
2.11764 -5.46758 -8.06039
1.15727 -5.22818 -7.6994
0.879347 -4.60852 -8.82417
1.62596 -5.33499 -8.80959
2.61485 -5.9834 -11.6009
0.916098 -4.56985 -8.92812
6.18329 -5.64447 -8.44397
3.18796 -5.19549 -5.28109
0.905084 -4.73069 -9.2359
0.936121 -4.71479 -9.25566
0.504032 -4.75756 -9.79431
2.66407 -16.1815 -3.11028
-0.74618 -5.43214 -4.36766
1.12385 -6.30909 -1.25409
1.82239 -4.9987 -5.53544
6.05052 -3.87286 -10.7429
0.406258 -4.65261 -6.11892
-0.0387709 -3.77881 -4.89893
4.07002 -3.47541 -7.93944
2.99176 -15.3371 -3.55354
1.79534 -5.33106 -1.20971
-0.806135 -7.71715 -2.24737
1.01782 -4.76525 -5.723
3.19567 -7.89452 -3.5282
3.11171 -5.14942 -5.18457
1.03216 -6.23408 -4.44224
0.0279561 -3.73341 -4.99482
-0.030973 -4.09349 -5.12344
-1.43185 -5.79312 -5.32265
3.53321 -11.788 -2.93087
3.27664 -5.29912 -5.88743
-0.00405817 -4.00417 -5.28568
3.59259 -7.39237 -14.1958
0.993584 -4.73608 -5.61526
0.417618 -4.22403 -6.83865
0.430135 -7.03094 -4.36031
3.19448 -14.5806 -3.83383
2.10547 -5.25238 -6.31529
4.29547 -6.94295 -10.6154
4.72154 -6.40348 -14.2344
0.532072 -4.322 -7.32478
0.709514 -5.52603 -4.6168
1.45741 -4.92116 -5.74293
3.16526 -6.525 -11.3752
0.630725 -4.43595 -7.90299
6.91099 -4.14241 -10.5632
0.935367 -4.79821 -9.18719
0.976713 -4.6614 -9.3773
1.00866 -4.68866 -9.41775
3.28803 -7.3499 -3.663
2.15865 -5.52102 -8.46077
3.98099 -3.34528 -7.78895
4.30729 -3.09044 -5.53143
4.62129 -5.46862 -5.35769
1.48787 -4.91112 -5.64452
3.38584 -14.5262 -4.39132
2.88315 -5.67894 -8.23127
4.66501 -5.89362 -7.27676
0.439124 -4.65495 -6.31393
1.02646 -4.8364 -6.95247
-0.0471008 -4.06459 -5.01476
2.80867 -15.3967 -2.97313
2.26156 -5.4112 -6.54355
4.23278 -5.54892 -5.42127
1.63794 -5.1617 -7.46811
-0.0385783 -4.09208 -5.10673
-0.238575 -5.06887 -8.07091
4.83379 -5.66549 -6.36233
-0.507049 -5.97831 -4.45855
-0.240689 -7.34182 -3.5999
2.0406 -5.37401 -7.60388
4.02984 -7.70442 -3.16862
0.158019 -3.89719 -5.59649
0.991301 -4.95679 -6.82453
0.169721 -3.92634 -5.62542
4.88407 -8.19549 -11.3125
1.61536 -5.25547 -8.29228
2.51051 -17.9733 -4.20073
0.289784 -4.057 -6.09878
1.30829 -5.42914 -4.60152
2.69236 -5.50109 -7.80561
0.363745 -4.10727 -6.49405
0.429302 -4.23544 -6.8903
2.44518 -7.69255 -3.64733
0.47961 -4.25042 -7.03066
5.39907 -5.87321 -7.17338
1.22841 -4.6363 -4.81067
-0.109864 -7.46696 -4.63698
1.46504 -10.6897 -0.151472
0.626997 -4.42036 -7.89283
3.21119 -7.63489 -11.7163
2.33201 -6.93898 -10.838
0.669607 -4.55225 -8.01981
4.68541 -3.21848 -11.1551
0.836671 -4.55802 -8.43161
-0.7761 -4.57695 -8.60629
1.42213 -7.52291 -4.109
0.884393 -4.64924 -8.91293
4.56573 -3.89512 -9.83796
0.879769 -4.62515 -9.00237
1.06925 -4.8223 -5.97412
1.78846 -6.49387 -1.0462
2.82105 -5.21137 -5.26403
6.38915 -6.2694 -9.57968
3.75247 -11.7164 -3.50946
-0.498351 -5.44411 -8.0765
0.962647 -4.58449 -9.04265
2.67979 -5.45889 -6.61245
1.94678 -6.28337 -10.7009
0.546996 -4.76958 -6.11837
3.04373 -2.47525 -3.56893
1.0227 -4.66242 -9.51918
1.09381 -4.72082 -9.79209
2.34039 -5.51439 -8.55279
5.71515 -5.73833 -6.94783
0.793 -4.89988 -7.40573
