ply
format ascii 1.0
comment Created by Open3D
element vertex 1556
property double x
property double y
property double z
end_header
-0.190609 0.0605281 -0.0804485
-0.150259 0.0769557 -0.0588455
-0.140732 0.114158 -0.0727567
-0.159302 0.0699329 -0.047608
-0.145957 0.0733794 -0.0685319
-0.13577 0.125474 -0.0734242
-0.13642 0.1248 -0.0782616
-0.171205 0.0333961 -0.0262358
-0.175828 0.0729021 -0.0416511
-0.101302 0.12924 -0.0916505
-0.104323 0.123519 -0.101605
-0.0982434 0.132481 -0.0839931
-0.186247 0.06743 -0.046581
-0.177843 0.0764979 -0.0866342
-0.18499 0.0784682 -0.0151695
-0.107602 0.0485626 -0.000651461
-0.176877 0.0764916 -0.000206589
-0.191058 0.0381283 -0.0703748
-0.190676 0.0487946 -0.0444012
-0.188973 0.0592781 -0.0473624
-0.125268 0.127866 -0.0823806
-0.0937783 0.108059 -0.106255
-0.194079 0.0339375 -0.0653451
-0.146132 0.104541 -0.0562075
-0.107923 0.136521 -0.0603707
-0.177863 0.0748818 -0.1004
-0.190691 0.0701254 -0.0652402
-0.200596 0.0168628 -0.0795037
-0.146567 0.0385439 -0.0164053
-0.117896 0.130511 -0.0896063
-0.111253 0.135152 -0.0708018
-0.18985 0.0717287 -0.0173394
-0.194559 0.0723761 -0.0774385
-0.150947 0.0360272 -0.0236488
-0.0931015 0.131825 -0.0849554
-0.137665 0.120176 -0.0831052
-0.0652876 0.118743 -0.0301336
-0.144527 0.0850746 -0.0748445
-0.184475 0.06781 -0.0527321
-0.196798 0.0700379 -0.0891115
-0.109537 0.116844 -0.102363
-0.172953 0.0548739 -0.00363936
-0.088639 0.131344 -0.0916519
-0.192179 0.0731399 -0.0923008
-0.18789 0.075849 -0.018207
-0.168304 0.0791769 -0.0222737
-0.100126 0.131942 -0.0827196
-0.147006 0.0959072 -0.0706135
-0.148412 0.0939822 -0.0645542
-0.19087 0.0528335 -0.0469626
-0.146116 0.104239 -0.0630752
-0.189015 0.0703556 -0.0312711
-0.194334 0.0695349 -0.0271003
-0.129932 0.131827 -0.0751323
-0.19735 0.0659387 -0.0786492
-0.190697 0.0627623 -0.0720301
-0.0832819 0.0748895 0.0131863
-0.0840777 0.0773869 0.00879922
-0.191112 0.0314029 -0.0602206
-0.193437 0.0374368 -0.0616654
-0.111289 0.13322 -0.094247
-0.0921998 0.112022 -0.103573
-0.192892 0.0674847 -0.0650587
-0.185958 0.0674737 -0.070031
-0.0751868 0.0890812 0.00109374
-0.199275 0.030945 -0.0649417
-0.123041 0.107873 -0.0219772
-0.184388 0.0390306 -0.0282674
-0.146589 0.10299 -0.0569308
-0.139269 0.0351534 -0.0107375
-0.185025 0.0440679 -0.0598439
-0.172744 0.0384775 -0.051308
-0.197933 0.0261813 -0.0606306
-0.123355 0.13065 -0.0827447
-0.10406 0.139344 -0.0862031
-0.137177 0.110399 -0.0411223
-0.129095 0.127987 -0.0680461
-0.147735 0.0366953 -0.0475105
-0.193282 0.011046 -0.0808276
-0.193235 0.045909 -0.0185347
-0.130945 0.123954 -0.0618461
-0.101147 0.0984512 -0.104446
-0.102922 0.118731 -0.101936
-0.13314 0.121974 -0.0577368
-0.186622 0.0773919 -0.0233749
-0.174982 0.0800783 -0.0113949
-0.147315 0.0862642 -0.0712426
-0.147596 0.101682 -0.0835502
-0.187316 0.0759692 -0.0295589
-0.119189 0.12607 -0.0908995
-0.0579805 0.127373 -0.0417606
-0.109859 0.13286 -0.0515502
-0.135174 0.111088 -0.0482299
-0.104491 0.135996 -0.0894098
-0.103623 0.132426 -0.0952784
-0.148774 0.0309923 -0.0331115
-0.173042 0.0345988 -0.0433765
-0.113973 0.0796424 -0.0963822
-0.144196 0.10993 -0.0762865
-0.143073 0.108204 -0.0783764
-0.144487 0.100853 -0.0754995
-0.154745 0.0781995 -0.049654
-0.146375 0.0974547 -0.0535544
-0.190417 0.0545457 -0.0472306
-0.163528 0.0757724 -0.0451589
-0.0882987 0.0803141 0.0095571
-0.145612 0.0960893 -0.0793125
-0.183929 0.0518076 -0.0132927
-0.0817962 0.085472 0.0019631
-0.198552 0.0156722 -0.101438
-0.151226 0.0858747 -0.048291
-0.193141 0.0636448 -0.0207167
-0.140315 0.036148 -0.00319823
-0.150991 0.0666059 -0.0625884
-0.150188 0.0322364 -0.0237205
-0.182566 0.0705922 -0.0602619
-0.134117 0.123222 -0.0810471
-0.14504 0.0999731 -0.04538
-0.144836 0.100893 -0.0450738
-0.145486 0.101228 -0.0445428
-0.164967 0.0749795 0.00256461
-0.0623135 0.122008 -0.0307033
-0.187157 0.0638017 -0.0571958
-0.184127 0.0694098 -0.0612093
-0.186743 0.0691582 -0.0479892
-0.127904 0.128431 -0.091575
-0.106095 0.113775 -0.104845
-0.17538 0.0346397 -0.0361868
-0.169818 0.0799484 -0.00147566
-0.106179 0.100132 -0.110633
-0.0888638 0.124062 -0.0950309
-0.130354 0.0255647 -0.0373242
-0.128525 0.0260675 -0.0332114
-0.186415 0.0606938 -0.0474421
-0.183784 0.053432 -0.051038
-0.144874 0.0632204 -0.000842577
-0.178049 0.035149 -0.0274287
-0.0858007 0.084549 0.00253846
-0.0831551 0.0886691 -0.00186189
-0.18954 0.0430613 -0.062357
-0.0753965 0.0959767 -0.000129638
-0.0771355 0.102977 -0.00536636
-0.0725277 0.103351 -0.0046759
-0.0797503 0.104291 -0.00734661
-0.0776299 0.110142 -0.0151684
-0.0735462 0.110643 -0.0198947
-0.0722995 0.115657 -0.0240418
-0.071532 0.126234 -0.0341597
-0.126963 0.131471 -0.0717102
-0.151201 0.0954662 -0.062221
-0.175683 0.0756191 -0.0433
-0.196829 0.0146994 -0.097865
-0.191644 0.0628888 -0.0886944
-0.166568 0.0819205 -0.0281191
-0.170592 0.0792709 -0.0156679
-0.166299 0.0509542 -0.00108002
-0.133941 0.118773 -0.0481239
-0.18502 0.0596713 -0.0741351
-0.180201 0.0609194 -0.0737455
-0.109418 0.0778282 -0.00888063
-0.11305 0.0479066 -0.063379
-0.190306 0.0108676 -0.0921315
-0.144484 0.115603 -0.0598025
-0.151834 0.0684383 -0.0559036
-0.189892 0.0685998 -0.0163578
-0.19185 0.0449414 -0.0553067
-0.0865905 0.0753109 0.0116467
-0.147531 0.0789385 -0.0682553
-0.0769461 0.109806 -0.0199488
-0.0719828 0.119744 -0.0282185
-0.191545 0.0655282 -0.012666
-0.173782 0.0693265 0.00121135
-0.114734 0.074582 -0.0936324
-0.125708 0.0259061 -0.031352
-0.123545 0.0253037 -0.037838
-0.186327 0.0463791 -0.0599412
-0.121922 0.109753 -0.0187479
-0.12184 0.121506 -0.0425618
-0.0774408 0.134777 -0.0763259
-0.0890646 0.0759987 0.000601558
-0.0902583 0.080525 0.00100719
-0.188778 0.0458028 -0.0523184
-0.19519 0.0472776 -0.0201894
-0.191482 0.0677032 -0.0308005
-0.12611 0.119779 -0.0376016
-0.118848 0.109178 -0.104893
-0.165367 0.0488356 0.00374945
-0.0809121 0.094772 -0.00439362
-0.142708 0.0904671 -0.036083
-0.149811 0.0794115 -0.0257497
-0.0825091 0.115356 -0.102087
-0.150942 0.0925366 -0.0574344
-0.0528399 0.129354 -0.0603099
-0.179926 0.0565396 -0.0687586
-0.187717 0.0615638 -0.0919575
-0.090978 0.091148 -0.104714
-0.110099 0.0477462 -0.0723486
-0.190729 0.0467681 -0.0255846
-0.111568 0.133322 -0.0854502
-0.143688 0.118123 -0.0763413
-0.111698 0.0502781 -0.0740051
-0.0827 0.100249 -0.00525671
-0.0780142 0.106674 -0.0175129
-0.0743266 0.118495 -0.0228214
-0.0701605 0.120974 -0.0249747
-0.0710207 0.125105 -0.031227
-0.185341 0.0797961 -0.0345514
-0.180219 0.0813385 -0.0130098
-0.0566351 0.132524 -0.0585227
-0.19399 0.0725776 -0.0998136
-0.19567 0.0738747 -0.0982929
-0.14401 0.113575 -0.0705464
-0.179092 0.0433561 -0.0568258
-0.0881237 0.0712323 0.0079758
-0.080156 0.0893349 -0.0103146
-0.0783066 0.108475 -0.0172661
-0.0819013 0.115396 -0.0224631
-0.0788554 0.119343 -0.0211865
-0.0779356 0.12605 -0.0261262
-0.073493 0.12703 -0.0332327
-0.0948851 0.122035 -0.100523
-0.154263 0.0451274 -0.0127569
-0.190003 0.0593582 -0.0117604
-0.101469 0.135754 -0.0898021
-0.0989437 0.131633 -0.0954102
-0.184586 0.0501173 -0.0535467
-0.0906269 0.0760329 -0.00312523
-0.0876404 0.0889279 -0.00965944
-0.157673 0.0776042 -0.0461636
-0.126388 0.111456 -0.0380315
-0.158828 0.0730299 -0.0516547
-0.191524 0.0398845 -0.0537919
-0.0839697 0.0978034 -0.0150521
-0.0859353 0.104766 -0.0156343
-0.0830692 0.106236 -0.0195382
-0.083099 0.113109 -0.0175982
-0.169121 0.0321729 -0.0209056
-0.11009 0.0489942 -0.0803304
-0.197982 0.0102882 -0.0880268
-0.171636 0.0502023 -0.0540137
-0.171493 0.0432519 -0.00813127
-0.114201 0.112734 -0.106321
-0.167867 0.0742618 -0.0376562
-0.14323 0.108616 -0.0552322
-0.183201 0.0321446 -0.0729709
-0.14899 0.0439129 -0.00740306
-0.183009 0.0582747 -0.0112108
-0.1452 0.0895366 -0.0552154
-0.0650984 0.128897 -0.0628138
-0.0630774 0.134636 -0.0656376
-0.0584334 0.137587 -0.0682453
-0.1844 0.0231422 -0.0796261
-0.115583 0.136347 -0.0658711
-0.192778 0.0652719 -0.0939158
-0.138311 0.0652207 -0.000127211
-0.144416 0.115164 -0.0855517
-0.126795 0.111281 -0.0321996
-0.150527 0.102524 -0.0695917
-0.0902929 0.0830028 -0.00260027
-0.0876754 0.0802593 -0.00450384
-0.085806 0.0914584 -0.0141415
-0.0943385 0.115324 -0.106577
-0.159545 0.0676051 0.00701895
-0.160987 0.0326244 -0.00992451
-0.144911 0.111686 -0.0523781
-0.140575 0.113476 -0.0859921
-0.183042 0.036806 -0.0454451
-0.162172 0.0329753 -0.0287295
-0.140632 0.1166 -0.0775322
-0.15311 0.0853121 -0.0421327
-0.151731 0.084846 -0.0397171
-0.146863 0.0897792 -0.0415889
-0.145298 0.102723 -0.0547124
-0.155664 0.0775875 -0.0209671
-0.187511 0.0321226 -0.0731139
-0.186373 0.0689746 -0.00497224
-0.108587 0.137037 -0.0773174
-0.122275 0.13357 -0.0843175
-0.146142 0.0900688 -0.0387425
-0.186098 0.0772579 -0.0323907
-0.0922641 0.0750264 -0.00598593
-0.186938 0.056531 -0.0572613
-0.0882632 0.103346 -0.0166191
-0.175193 0.0698183 0.00128985
-0.188219 0.0688627 -0.11414
-0.0923828 0.101107 -0.106325
-0.130392 0.125741 -0.0886633
-0.141086 0.0326798 -0.0144591
-0.193698 0.0680823 -0.0371997
-0.189283 0.045357 -0.0438762
-0.190969 0.0771487 -0.0383399
-0.149811 0.0836921 -0.0571138
-0.193859 0.06144 -0.0333796
-0.195733 0.0140104 -0.0772098
-0.142277 0.0294117 -0.0329225
-0.0929756 0.111997 -0.0181295
-0.0876252 0.115115 -0.0235101
-0.0820179 0.120963 -0.0213364
-0.0843678 0.124517 -0.0266712
-0.0810851 0.129349 -0.0335955
-0.0802768 0.105601 -0.105474
-0.0660161 0.132318 -0.0710097
-0.181848 0.0801261 -0.00540318
-0.141496 0.0599205 -0.0692357
-0.118881 0.112311 -0.0217399
-0.192556 0.0399084 -0.053083
-0.188949 0.0639603 -0.0416627
-0.191133 0.068152 -0.0250463
-0.145404 0.105925 -0.0634603
-0.113026 0.101866 -0.106491
-0.0952267 0.0840727 -0.00985793
-0.096527 0.088461 -0.0128464
-0.0922741 0.0935171 -0.0213903
-0.150467 0.0901606 -0.0505892
-0.195487 0.0569049 -0.0289297
-0.144414 0.0868934 -0.0824762
-0.131033 0.117797 -0.0887905
-0.194424 0.0606845 -0.0820628
-0.142565 0.0949644 -0.0382209
-0.146618 0.0965969 -0.0501498
-0.18351 0.0706488 -0.0487744
-0.141719 0.106544 -0.0504586
-0.109528 0.0442012 -0.00392868
-0.181734 0.0686072 -0.113488
-0.195261 0.07214 -0.100107
-0.1341 0.0635209 0.0041625
-0.0940456 0.0554941 -0.016002
-0.148906 0.090978 -0.0569428
-0.196111 0.058621 -0.020248
-0.143746 0.0718997 -0.0697876
-0.142205 0.0693028 -0.0723372
-0.193204 0.0665896 -0.0938409
-0.0899401 0.120588 -0.0237759
-0.0861294 0.128184 -0.0239218
-0.0905076 0.127443 -0.0289964
-0.149438 0.0813054 -0.0239338
-0.14694 0.107943 -0.076922
-0.100783 0.132067 -0.0959344
-0.155031 0.0346403 -0.0134185
-0.175697 0.0372777 -0.0541744
-0.143082 0.0570273 0.00268458
-0.147002 0.0909429 -0.0463365
-0.179766 0.0714174 -0.0430107
-0.135606 0.127152 -0.0673522
-0.135083 0.121261 -0.0567488
-0.161167 0.0416585 -0.00839134
-0.148375 0.086015 -0.033967
-0.19544 0.0489912 -0.0293955
-0.184547 0.0319044 -0.0761212
-0.148753 0.0554424 -0.0603567
-0.178835 0.0754845 -0.0883154
-0.193441 0.0156713 -0.0913884
-0.193107 0.0517531 -0.0374467
-0.177767 0.0318415 -0.070807
-0.0977157 0.0598674 -0.012092
-0.151374 0.0861874 -0.0463505
-0.191556 0.0456522 -0.0372638
-0.170414 0.0821384 -0.0368467
-0.140374 0.102738 -0.0882101
-0.0940855 0.114647 -0.0163531
-0.0941082 0.119583 -0.0236733
-0.0905857 0.120505 -0.0224997
-0.0892971 0.123753 -0.0319735
-0.0892254 0.128191 -0.0318871
-0.141833 0.109279 -0.0486055
-0.139488 0.116702 -0.0556398
-0.143566 0.1106 -0.0515282
-0.0948573 0.0626741 -0.0153508
-0.147498 0.0431019 -0.00337826
-0.11938 0.0467483 -0.0724561
-0.0696702 0.135546 -0.0716776
-0.0647561 0.143047 -0.0749406
-0.090237 0.111392 -0.104929
-0.0984419 0.0655705 -0.00657869
-0.0982716 0.0702741 -0.00849242
-0.165546 0.06932 -0.0486601
-0.119071 0.125617 -0.0476004
-0.129974 0.124943 -0.0735143
-0.103795 0.0807348 -0.00553612
-0.100679 0.0910872 -0.00913977
-0.101954 0.0920695 -0.0130904
-0.0936788 0.0948125 -0.021262
-0.198454 0.053462 -0.0138062
-0.175171 0.0441093 -0.0550466
-0.138477 0.117786 -0.0572707
-0.186236 0.070654 -0.00266738
-0.14654 0.110824 -0.0646151
-0.108924 0.108413 -0.106735
-0.12342 0.129775 -0.0716777
-0.103922 0.0716582 -0.00801866
-0.129217 0.120169 -0.0950053
-0.157618 0.0691884 -0.0514905
-0.188205 0.0410933 -0.0443962
-0.183794 0.0255795 -0.0652335
-0.138684 0.0327302 -0.0236739
-0.201063 0.0147428 -0.0824382
-0.134698 0.12455 -0.0602965
-0.193279 0.0686488 -0.107616
-0.151213 0.0784047 -0.0389236
-0.151301 0.0500176 -0.0576494
-0.109303 0.0917263 -0.105185
-0.167487 0.0370675 -0.0118116
-0.0716073 0.134984 -0.0723003
-0.0684682 0.137754 -0.075642
-0.0678775 0.142024 -0.0777055
-0.193424 0.0577699 -0.0721052
-0.137511 0.0298001 -0.0123237
-0.191502 0.0228529 -0.0653396
-0.150734 0.0617931 -0.0621528
-0.107914 0.100069 -0.0175129
-0.136085 0.0397079 -0.0500841
-0.14965 0.0358261 -0.036485
-0.122953 0.032086 -0.044044
-0.10472 0.0446111 -0.0686416
-0.0982478 0.125751 -0.0304435
-0.0857314 0.129987 -0.033967
-0.105624 0.118839 -0.103272
-0.193477 0.058968 -0.0370311
-0.113568 0.0775209 -0.00127597
-0.146601 0.0392074 -0.042323
-0.116827 0.0345136 -0.0489665
-0.116083 0.0448176 -0.0581712
-0.105015 0.0799206 -0.00870533
-0.143243 0.11707 -0.0680615
-0.131745 0.125255 -0.0797729
-0.153532 0.080064 -0.0283158
-0.186408 0.0452431 -0.0164739
-0.189664 0.0440905 -0.0161034
-0.176428 0.0633684 -0.055702
-0.193115 0.0314701 -0.0516801
-0.145954 0.0360462 -0.0142034
-0.167523 0.0356937 -0.0355776
-0.130212 0.0473356 -0.0639946
-0.15819 0.031915 -0.0310933
-0.100989 0.0554729 -0.0900807
-0.102332 0.0525992 -0.0904286
-0.142595 0.0365727 -0.0531623
-0.110508 0.0839171 -0.102555
-0.113086 0.0699889 -0.0889874
-0.107756 0.0859505 -0.0116828
-0.104529 0.0925668 -0.0159488
-0.101839 0.098271 -0.0185303
-0.150819 0.0954677 -0.0612238
-0.149778 0.0872485 -0.0644867
-0.0998256 0.1127 -0.0156755
-0.102822 0.120385 -0.0247924
-0.0986981 0.125759 -0.0263182
-0.0926738 0.131921 -0.0344067
-0.0914161 0.136621 -0.0366232
-0.173825 0.0749576 -0.069218
-0.0944571 0.135329 -0.0842314
-0.154738 0.0450823 -0.049005
-0.123203 0.0619604 -0.0748151
-0.112745 0.0473203 -0.0610471
-0.151948 0.0314315 -0.0263534
-0.174579 0.0624189 -0.0736438
-0.0992633 0.0630969 -0.0950446
-0.107238 0.0761913 -0.0988275
-0.110018 0.081825 -0.0128105
-0.191395 0.0629474 -0.0217952
-0.133505 0.125483 -0.0684541
-0.142352 0.0287361 -0.0338936
-0.182384 0.0629869 -0.00546268
-0.164644 0.0414629 -0.0431426
-0.0775457 0.136154 -0.0738112
-0.0749908 0.139229 -0.0808225
-0.172284 0.0576501 0.00583425
-0.159766 0.0376794 -0.0487742
-0.154592 0.0353431 -0.0415264
-0.139136 0.031755 -0.0380268
-0.182606 0.00944742 -0.0936936
-0.0804084 0.130807 -0.0827907
-0.185585 0.0684227 -0.0484853
-0.103597 0.117581 -0.0210971
-0.143028 0.0550568 -0.0652618
-0.106943 0.0451277 -0.0795567
-0.17444 0.0719149 -0.109159
-0.186013 0.0582091 -0.0627054
-0.19108 0.0215992 -0.0856
-0.148889 0.0911301 -0.0751541
-0.186399 0.0635154 -0.0946711
-0.181599 0.0531543 -0.0635166
-0.168062 0.0357317 -0.0394235
-0.115875 0.053786 0.000152231
-0.119369 0.0642604 -0.0882107
-0.177582 0.0551157 -0.0637967
-0.193927 0.068324 -0.108853
-0.104674 0.11333 -0.0198986
-0.171205 0.0725967 0.00330761
-0.17833 0.0401393 -0.0604881
-0.153728 0.053591 -0.00530191
-0.174986 0.0656646 -0.104281
-0.127251 0.122008 -0.0444779
-0.105088 0.0683304 -0.00536462
-0.111807 0.0389286 -0.0538238
-0.113966 0.0844626 -0.00436614
-0.112962 0.0848263 -0.00837401
-0.104914 0.110728 -0.0198078
-0.109598 0.120745 -0.020113
-0.0998427 0.121474 -0.0230383
-0.102739 0.124784 -0.027435
-0.101747 0.129501 -0.0319592
-0.100611 0.131222 -0.0346768
-0.177535 0.0719365 -0.0839429
-0.188588 0.0111995 -0.0983341
-0.186896 0.0423211 -0.0318805
-0.187134 0.0183561 -0.0900978
-0.113242 0.114481 -0.0992434
-0.178499 0.037791 -0.0481638
-0.199067 0.0685906 -0.0996445
-0.116409 0.0414229 -0.0037634
-0.120123 0.07314 -0.000140818
-0.120691 0.0788456 0.00177561
-0.119818 0.0805701 -0.00210121
-0.11874 0.0836149 -0.00799285
-0.115147 0.0920209 -0.010152
-0.110588 0.0892948 -0.012918
-0.110829 0.0936957 -0.015903
-0.185799 0.0139833 -0.0912352
-0.0884331 0.103945 -0.112067
-0.0835916 0.0684669 0.0128331
-0.149158 0.0478503 -0.0578815
-0.19199 0.0181602 -0.0748702
-0.165007 0.0685177 -0.0547872
-0.191988 0.0622576 -0.0702269
-0.191168 0.0160866 -0.0804318
-0.132821 0.12848 -0.0822738
-0.110392 0.115622 -0.0186923
-0.143403 0.0675818 -0.0720305
-0.180961 0.0348036 -0.0676488
-0.155246 0.0585892 -0.00393224
-0.180493 0.0124568 -0.0816499
-0.185976 0.0202071 -0.0803131
-0.161744 0.0520959 -0.00291227
-0.120741 0.0819727 -0.00232961
-0.109187 0.0978934 -0.0218733
-0.134045 0.0727875 0.00137052
-0.174878 0.0375828 -0.0156601
-0.161287 0.0476958 -0.00425232
-0.169888 0.0681407 -0.0508685
-0.190741 0.0646867 -0.0887566
-0.193731 0.0491542 -0.0329397
-0.15029 0.0595063 -0.00276131
-0.16132 0.0391994 -0.0103519
-0.154236 0.0451956 -0.0100765
-0.114182 0.111067 -0.0190149
-0.111794 0.117876 -0.0223473
-0.110552 0.122892 -0.0287827
-0.106592 0.124604 -0.0262032
-0.109087 0.131314 -0.0355636
-0.106902 0.132531 -0.0390152
-0.103669 0.135473 -0.0455587
-0.147496 0.0580309 -0.0605543
-0.169738 0.0364892 -0.0192768
-0.155467 0.0761109 -0.0431009
-0.143575 0.0332626 -0.0273756
-0.120628 0.0734705 0.000682151
-0.122885 0.073804 6.27792e-05
-0.126697 0.0826428 -0.00340234
-0.121206 0.0853657 -0.00932256
-0.120808 0.0885573 -0.0129209
-0.114239 0.0874232 -0.0128945
-0.115601 0.0893109 -0.013935
-0.115686 0.0896915 -0.020792
-0.116693 0.0938826 -0.0225836
-0.197465 0.0488257 -0.0289086
-0.142409 0.0988598 -0.0425626
-0.157181 0.0728775 0.00355597
-0.183772 0.0394962 -0.0469847
-0.188691 0.0210867 -0.0724693
-0.113739 0.100908 -0.020258
-0.144148 0.0332698 -0.0162765
-0.102121 0.134106 -0.0523428
-0.18429 0.0382039 -0.0406838
-0.134761 0.0889283 -0.0980165
-0.102614 0.136614 -0.0483021
-0.184271 0.0292125 -0.0785513
-0.193165 0.0614618 -0.0233974
-0.144694 0.0925409 -0.0802938
-0.120629 0.119089 -0.0266792
-0.113349 0.126504 -0.036135
-0.112175 0.12931 -0.0372782
-0.111658 0.134559 -0.0439944
-0.108604 0.0596045 -0.0918476
-0.123525 0.128695 -0.0903565
-0.190659 0.0488369 -0.0354332
-0.119914 0.103379 -0.10845
-0.126959 0.0753879 -0.00282871
-0.132869 0.0831947 -0.00372604
-0.127198 0.0845113 -0.00902305
-0.126097 0.0893859 -0.0143163
-0.122976 0.0929699 -0.0158107
-0.123938 0.0986983 -0.0243075
-0.121309 0.0978 -0.0243585
-0.105395 0.137502 -0.0485383
-0.103886 0.138642 -0.0544793
-0.129638 0.069909 0.001554
-0.109303 0.0473244 -0.0749245
-0.192447 0.0701686 -0.0955918
-0.144709 0.0617316 -0.000344334
-0.176557 0.0437289 -0.0120148
-0.188445 0.0308847 -0.0589347
-0.136568 0.105051 -0.0931705
-0.11491 0.131725 -0.0414
-0.190075 0.0176813 -0.0749246
-0.132626 0.0549235 -0.070082
-0.182067 0.0745551 -0.04427
-0.133803 0.0703334 0.00361191
-0.126585 0.0893839 -0.0152748
-0.102394 0.141425 -0.0533843
-0.123503 0.103691 -0.101881
-0.127989 0.119772 -0.0902628
-0.118718 0.119376 -0.027955
-0.127323 0.0761613 -0.0906296
-0.159806 0.0532772 0.00062856
-0.140864 0.0665991 -0.00479297
-0.135978 0.0773933 -0.00352831
-0.137225 0.0837474 -0.00768867
-0.130882 0.0861976 -0.00853655
-0.134698 0.0896649 -0.0140919
-0.131607 0.0917917 -0.0169926
-0.126993 0.0910548 -0.0198725
-0.12915 0.0971382 -0.0244529
-0.124162 0.100406 -0.023883
-0.124055 0.119351 -0.0237031
-0.118702 0.12666 -0.0359581
-0.115697 0.131162 -0.0389911
-0.117377 0.131994 -0.0472818
-0.107808 0.134852 -0.060852
-0.198179 0.0131427 -0.0879329
-0.191088 0.0592034 -0.060823
-0.14178 0.0462375 -0.00485227
-0.195332 0.00649338 -0.0992856
-0.130798 0.0455268 -0.0625136
-0.138427 0.0748196 -0.00526873
-0.149578 0.0802493 -0.0537859
-0.122311 0.114278 -0.0320393
-0.119421 0.117424 -0.0321291
-0.120881 0.12858 -0.0402752
-0.112734 0.13554 -0.0533221
-0.146156 0.0410631 -0.0108586
-0.121567 0.0699341 0.00258835
-0.0973627 0.101854 -0.107277
-0.109014 0.13618 -0.0793802
-0.182751 0.0736586 -0.0449477
-0.17748 0.0523184 -0.00150032
-0.177723 0.0231512 -0.0646334
-0.118014 0.0403287 -0.0561438
-0.157633 0.06756 -0.0505543
-0.146809 0.0702131 -0.00525688
-0.143032 0.0744344 -0.00647415
-0.137525 0.0836135 -0.0111235
-0.137509 0.0839609 -0.00865985
-0.135238 0.090163 -0.0214724
-0.130967 0.0970173 -0.0255187
-0.129452 0.101568 -0.0334671
-0.129687 0.107207 -0.0338964
-0.122129 0.128798 -0.0504788
-0.118281 0.129479 -0.0508156
-0.118436 0.130939 -0.0548273
-0.111769 0.138566 -0.058572
-0.162641 0.0410151 -0.050352
-0.17955 0.0208169 -0.0684308
-0.16994 0.0515334 -0.00686125
-0.192531 0.00757067 -0.099242
-0.193007 0.0260777 -0.0616488
-0.105959 0.0705608 -0.00340302
-0.11654 0.123797 -0.0987993
-0.120271 0.0374493 -0.0564273
-0.143989 0.0796343 -0.00877646
-0.139425 0.0867058 -0.0119991
-0.136369 0.0902508 -0.0164799
-0.133476 0.0966317 -0.0276468
-0.127288 0.125915 -0.0487984
-0.183274 0.0334798 -0.0517332
-0.14609 0.0315969 -0.0276478
-0.182405 0.0625202 -0.0947426
-0.155941 0.0786933 -0.00182662
-0.14578 0.0673936 -0.000870483
-0.183291 0.0417805 -0.0179612
-0.135875 0.104278 -0.0336796
-0.129757 0.107821 -0.0379477
-0.134378 0.111635 -0.038652
-0.130963 0.11409 -0.0417764
-0.127193 0.119672 -0.0475826
-0.124252 0.121181 -0.0492829
-0.126081 0.12622 -0.05415
-0.123911 0.133619 -0.0571945
-0.150279 0.057879 -0.00286509
-0.151403 0.0715846 -0.00686852
-0.147285 0.0715879 -0.0117749
-0.1452 0.0807089 -0.00931121
-0.146483 0.0795519 -0.018286
-0.140632 0.0872963 -0.0228239
-0.140601 0.089634 -0.0278715
-0.135095 0.0942371 -0.0313511
-0.119692 0.133529 -0.063897
-0.164782 0.0614732 -0.0592918
-0.117552 0.134818 -0.0745509
-0.0875993 0.11713 -0.103039
-0.149406 0.0735726 -0.0175233
-0.134052 0.105787 -0.034916
-0.137088 0.110216 -0.0395593
-0.129151 0.121114 -0.0538545
-0.126053 0.121877 -0.0577125
-0.122039 0.130346 -0.0619559
-0.120415 0.132899 -0.0696742
-0.184126 0.0679005 -0.0798052
-0.158559 0.0445932 -0.0556162
-0.130466 0.0419973 -0.0584545
-0.18967 0.0652873 -0.115785
-0.116312 0.0854586 -0.101219
-0.169218 0.0430679 -0.0488613
-0.183006 0.0639056 -0.0885432
-0.182039 0.0613858 -0.0846719
-0.151182 0.0721457 -0.0102837
-0.15331 0.0742778 -0.0112291
-0.149063 0.0777228 -0.0168281
-0.147322 0.0792908 -0.0222589
-0.146592 0.0835723 -0.0215998
-0.145076 0.0907171 -0.0308676
-0.137826 0.0916557 -0.0340594
-0.135384 0.116227 -0.0444564
-0.133671 0.11716 -0.0502708
-0.125315 0.132534 -0.0721292
-0.106974 0.0921111 -0.106425
-0.155683 0.0745379 -0.00481562
-0.175511 0.0622873 -0.0673772
-0.129093 0.0295099 -0.0415047
-0.178457 0.0517367 -0.00847533
-0.117426 0.0499315 -0.0681971
-0.123253 0.0311898 -0.049905
-0.0743567 0.104147 -0.00575628
-0.0700461 0.105393 -0.00461044
-0.163114 0.0340066 -0.0354059
-0.181762 0.0718704 -0.0917211
-0.12522 0.132282 -0.0778673
-0.178291 0.0722406 -0.104722
-0.180429 0.0533858 -0.0566695
-0.0620996 0.127377 -0.0326625
-0.115325 0.13605 -0.0782926
-0.145266 0.0394784 -0.0456214
-0.0694654 0.111025 -0.0144754
-0.0655972 0.110701 -0.0173187
-0.159768 0.0801247 -0.0113783
-0.1763 0.075227 -0.0288425
-0.0604966 0.128656 -0.0382979
-0.160434 0.0789887 -0.0280406
-0.194167 0.0696866 -0.102217
-0.173976 0.0270823 -0.0714278
-0.10633 0.139004 -0.0700647
-0.178823 0.066744 -0.0578469
-0.0604346 0.120034 -0.0251196
-0.15449 0.0667713 0.00235794
-0.16298 0.0812488 -0.0262023
-0.0732538 0.0843065 0.000847282
-0.106833 0.0660343 -0.097003
-0.190054 0.0728933 -0.110552
-0.0565354 0.128709 -0.0537018
-0.143873 0.0404173 -0.0458168
-0.124198 0.128537 -0.0767926
-0.176169 0.0764905 -0.0286605
-0.176055 0.0766823 -0.0993521
-0.18609 0.0680006 -0.0837477
-0.0616829 0.12118 -0.0404524
-0.0647161 0.127406 -0.0451072
-0.0641349 0.128118 -0.0470234
-0.0635457 0.129049 -0.0485196
-0.104233 0.13914 -0.0796359
-0.0596281 0.125362 -0.0514596
-0.184449 0.0706908 -0.104906
-0.159357 0.0799742 -0.00349034
-0.125026 0.0339331 -0.0422655
-0.183956 0.0768521 -0.0203086
-0.171833 0.0680464 -0.0658832
-0.189234 0.0726377 -0.0881653
-0.18582 0.0735534 -0.0964216
-0.171635 0.0798601 -0.0117538
-0.142566 0.0348879 -0.0428628
-0.183422 0.0693162 -0.0641702
-0.161546 0.0752969 -0.0412729
-0.0814134 0.104413 -0.10303
-0.0612222 0.126231 -0.0546482
-0.178594 0.0799895 -0.0179255
-0.139858 0.0310336 -0.0473097
-0.0544559 0.130131 -0.0632204
-0.121278 0.0375191 -0.00197431
-0.164869 0.0848435 -0.00908923
-0.179638 0.0702682 -0.0634585
-0.179034 0.0738714 -0.069947
-0.155906 0.0754534 -0.0247104
-0.17104 0.0802528 -0.0233165
-0.0571729 0.132828 -0.067222
-0.0498631 0.135133 -0.0755391
-0.182416 0.0726801 -0.105049
-0.192373 0.0685314 -0.11231
-0.119611 0.135262 -0.0758771
-0.16834 0.0860396 -0.013125
-0.0592559 0.135375 -0.069219
-0.0546155 0.138722 -0.073761
-0.0569149 0.138262 -0.0738214
-0.186354 0.0736559 -0.101629
-0.112485 0.135721 -0.0884016
-0.179168 0.0734315 -0.0375931
-0.177025 0.0741817 -0.0228845
-0.174856 0.0735046 -0.0937049
-0.193575 0.071822 -0.0994551
-0.0748476 0.127867 -0.0370485
-0.167583 0.0811166 -0.0156682
-0.0552151 0.138921 -0.0813632
-0.122918 0.0887291 -0.0978493
-0.179978 0.0679517 -0.0867053
-0.183796 0.0702072 -0.0760806
-0.179351 0.0749133 -0.0723959
-0.180708 0.0749591 -0.075879
-0.179182 0.0734381 -0.0797494
-0.0721646 0.132293 -0.0426116
-0.0682701 0.125114 -0.0457971
-0.0705202 0.131406 -0.0521341
-0.0656747 0.133574 -0.0538954
-0.114835 0.135924 -0.0655184
-0.0580924 0.1375 -0.0811517
-0.153983 0.0798719 -0.00683345
-0.185479 0.0687207 -0.0808714
-0.0993566 0.0783498 -0.104956
-0.159822 0.078099 -0.021823
-0.165214 0.0823617 -0.0299126
-0.167155 0.0605204 -0.0580341
-0.177779 0.0662286 -0.0616267
-0.191207 0.0709695 -0.0867995
-0.10231 0.10554 -0.107304
-0.0766564 0.132968 -0.0378748
-0.0572113 0.138474 -0.082561
-0.0726967 0.132652 -0.0524541
-0.0587298 0.142196 -0.0918792
-0.103706 0.0448086 -0.00872271
-0.204142 0.00756791 -0.087561
-0.0838302 0.128467 -0.0397814
-0.0773406 0.135352 -0.0495088
-0.0744858 0.13261 -0.0515108
-0.0719361 0.138265 -0.0596749
-0.0693079 0.133398 -0.0636066
-0.105476 0.136901 -0.0749896
-0.165843 0.0666195 0.00549581
-0.0614623 0.142455 -0.0821765
-0.108889 0.136567 -0.0690185
-0.182056 0.0740683 -0.0940697
-0.17409 0.0761398 -0.0281738
-0.176523 0.0660653 -0.0548716
-0.177457 0.0772972 -0.022436
-0.182473 0.0742638 -0.074542
-0.174441 0.081611 -0.0190606
-0.102694 0.135829 -0.0711995
-0.0754823 0.135695 -0.0687824
-0.175634 0.035129 -0.0656447
-0.0851782 0.135144 -0.0373868
-0.0783547 0.130646 -0.0484464
-0.0808853 0.133121 -0.0521202
-0.0834731 0.1377 -0.0578999
-0.0776407 0.134276 -0.059465
-0.0780127 0.138218 -0.0633549
-0.0685555 0.14045 -0.0837499
-0.066754 0.140497 -0.0901957
-0.181255 0.0743338 -0.10531
-0.181675 0.0793243 -0.0292442
-0.0870523 0.13694 -0.0451364
-0.178007 0.0731503 -0.0750673
-0.10944 0.136798 -0.0628503
-0.173626 0.0693903 -0.0736545
-0.0927977 0.131549 -0.040897
-0.0917915 0.136839 -0.0478018
-0.0898484 0.132785 -0.0518036
-0.0893278 0.133987 -0.0561593
-0.0836099 0.13813 -0.0597102
-0.0809885 0.134291 -0.068543
-0.0811988 0.137249 -0.0733704
-0.0700783 0.141558 -0.088163
-0.104401 0.0607809 -0.00141832
-0.161991 0.0375167 -0.00789479
-0.0835625 0.0969104 -0.10252
-0.158155 0.029458 -0.025099
-0.189964 0.0729773 -0.0878177
-0.176206 0.073632 -0.0941633
-0.155953 0.0813119 -0.0132885
-0.0834967 0.136915 -0.0607742
-0.187415 0.039234 -0.0368866
-0.200678 0.010675 -0.0856979
-0.100427 0.0546968 -0.00752653
-0.131539 0.0554907 -0.0787793
-0.123402 0.0505291 0.00300539
-0.123114 0.101746 -0.102918
-0.096616 0.131224 -0.046143
-0.09611 0.135627 -0.0490422
-0.0905024 0.138868 -0.0570005
-0.0887578 0.138634 -0.0617546
-0.085345 0.13727 -0.0671375
-0.082121 0.133184 -0.0755329
-0.0898771 0.133645 -0.0776366
-0.0837789 0.132121 -0.0804752
-0.14252 0.0502951 -0.0629348
-0.0804538 0.135169 -0.0854729
-0.165329 0.0761006 -0.0444097
-0.122938 0.0711998 -0.0930682
-0.168605 0.0667459 -0.0543349
-0.0925813 0.142325 -0.0597135
-0.169633 0.0636735 -0.0591257
-0.123725 0.0638075 -0.0825108
-0.0789478 0.130591 -0.0930768
-0.177877 0.0783663 -0.0290172
-0.0975518 0.141813 -0.0562065
-0.0950491 0.139751 -0.0661708
-0.0970472 0.142072 -0.0678693
-0.0936818 0.135854 -0.0667162
-0.189092 0.0376244 -0.043161
-0.112227 0.0377066 -0.00816988
-0.0905018 0.137595 -0.0777358
-0.0907601 0.137642 -0.0771291
-0.0883506 0.134408 -0.0780726
-0.0906029 0.134635 -0.0893426
-0.161047 0.0681983 0.00765681
-0.13495 0.0303171 -0.0200537
-0.181084 0.0682811 -0.0988652
-0.111829 0.0472456 -0.000317601
-0.105429 0.141004 -0.0599075
-0.100066 0.13801 -0.0648932
-0.102859 0.137024 -0.07037
-0.0978578 0.134933 -0.0708475
-0.0978417 0.140761 -0.0760969
-0.0931118 0.13638 -0.0834348
-0.119188 0.0785751 -0.0983379
-0.17599 0.0318022 -0.0594848
-0.172408 0.0380528 -0.0409763
-0.132378 0.0565262 -0.0757832
-0.153178 0.0349448 -0.0242203
-0.180401 0.0697633 -0.110664
-0.174237 0.074249 -0.0879736
-0.173984 0.072672 -0.105695
-0.179733 0.0678534 -0.110917
-0.180094 0.0365153 -0.0329637
-0.0461916 0.0910399 -0.0734222
-0.0428555 0.0876665 -0.0758319
-0.0473565 0.0804965 -0.0721448
-0.0560095 0.119238 -0.0459922
-0.0476484 0.115685 -0.0760229
-0.049066 0.113095 -0.0812159
-0.0481497 0.091713 -0.0696898
-0.0457775 0.0821649 -0.0769219
-0.0490385 0.0777897 -0.0801145
-0.10548 0.088909 -0.104626
-0.0497698 0.121358 -0.0804661
-0.043939 0.115671 -0.080939
-0.047769 0.111831 -0.0854855
-0.160193 0.0634122 -0.0502323
-0.0521852 0.0893984 -0.076689
-0.0495331 0.0872849 -0.0806721
-0.0473479 0.0802346 -0.0833388
-0.166125 0.0579468 0.000541209
-0.128206 0.0528113 -0.0780928
-0.0506737 0.127359 -0.0742831
-0.047751 0.123863 -0.0848927
-0.0480703 0.117836 -0.0838098
-0.049075 0.118365 -0.0836272
-0.103392 0.0971122 -0.101724
-0.0471651 0.0996702 -0.0792949
-0.159394 0.0318124 -0.0170039
-0.189926 0.0180893 -0.0877565
-0.152628 0.0601699 -0.000826662
-0.0507178 0.12801 -0.0846547
-0.0476068 0.121733 -0.0872597
-0.140112 0.0584512 -0.0683875
-0.0494362 0.093406 -0.0766113
-0.189774 0.0588843 -0.079518
-0.186305 0.0159561 -0.0723542
-0.0494877 0.110483 -0.0903258
-0.0541791 0.0914356 -0.0797434
-0.0527601 0.0874626 -0.0815829
-0.0591212 0.0377185 -0.0512847
-0.110414 0.0544106 0.0013429
-0.18368 0.0289089 -0.0586128
-0.176947 0.0363293 -0.0314324
-0.0514248 0.133613 -0.0881965
-0.0542471 0.0927665 -0.0824106
-0.055669 0.0877826 -0.0807472
-0.0956335 0.097535 -0.106478
-0.0709765 0.121137 -0.0934763
-0.0600985 0.119616 -0.0999606
-0.107615 0.0707395 -0.00230147
-0.180298 0.0120015 -0.0915548
-0.161211 0.0604096 -0.0516883
-0.127124 0.0547637 -0.0693298
-0.181293 0.0142097 -0.0832337
-0.175902 0.0645406 -0.0714762
-0.0535646 0.132959 -0.0882392
-0.0572267 0.128064 -0.0919071
-0.04995 0.119841 -0.0903754
-0.0534132 0.114633 -0.0955194
-0.0529774 0.109521 -0.0944571
-0.0563454 0.103135 -0.0842113
-0.128252 0.0793385 -0.0974445
-0.116151 0.0624881 -0.087561
-0.188237 0.0157329 -0.0945904
-0.0552136 0.100677 -0.0841998
-0.057355 0.0934082 -0.0896568
-0.0545179 0.0893132 -0.0884185
-0.132403 0.0734669 -0.0853811
-0.135129 0.0708551 -0.085888
-0.173654 0.0465608 -0.0534484
-0.128079 0.102723 -0.101962
-0.0657658 0.0351102 -0.0475237
-0.0532953 0.0999361 -0.0866499
-0.115036 0.106484 -0.106819
-0.140501 0.0648725 -0.0769105
-0.135579 0.0604119 -0.0792002
-0.0568397 0.055256 -0.0705655
-0.139284 0.0422653 -0.0598614
-0.133358 0.102107 -0.0994484
-0.073694 0.0343733 -0.00776143
-0.127882 0.0758148 -0.0913504
-0.0582549 0.0932285 -0.0882113
-0.0569964 0.0871163 -0.0872813
-0.134656 0.0743547 -0.0811039
-0.108633 0.0980703 -0.108676
-0.0725036 0.114474 -0.0956786
-0.111842 0.0679219 -0.0940302
-0.122388 0.0584715 0.00657995
-0.0596234 0.135534 -0.0933035
-0.0588837 0.131372 -0.0967216
-0.0604483 0.12157 -0.098764
-0.139634 0.0754301 -0.0794829
-0.119919 0.0925691 -0.10185
-0.0619259 0.0995982 -0.0899798
-0.0875648 0.0848019 -0.105944
-0.138219 0.0515885 -0.0685987
-0.123456 0.0476781 -0.00330393
-0.0608279 0.0433565 -0.0565906
-0.0638495 0.100748 -0.0948983
-0.0646695 0.0973801 -0.0964216
-0.0570338 0.0829123 -0.0894841
-0.107781 0.0512541 -0.0833024
-0.161303 0.0623562 0.00307458
-0.0726556 0.102142 -0.00216013
-0.133668 0.0442884 -0.0591866
-0.0625227 0.0855341 -0.0953247
-0.0974389 0.0780038 -0.0986123
-0.140443 0.0719636 -0.0770262
-0.126196 0.0316996 -0.0400317
-0.137818 0.0257393 -0.01754
-0.161924 0.0432563 -0.0046589
-0.174158 0.0377768 -0.0221297
-0.0611453 0.108683 -0.0917893
-0.0639486 0.092812 -0.0924462
-0.0959101 0.0907976 -0.105732
-0.124495 0.0918375 -0.102117
-0.116589 0.0594882 0.00332452
-0.0648207 0.137786 -0.0984395
-0.0628885 0.137522 -0.0915284
-0.06286 0.133538 -0.0988052
-0.064796 0.127697 -0.100577
-0.144361 0.0277312 -0.028304
-0.168307 0.0518597 -0.056251
-0.0678483 0.0927848 -0.100722
-0.068817 0.0903487 -0.0929769
-0.128307 0.0963375 -0.102381
-0.136929 0.0444723 -0.0594173
-0.0678474 0.115712 -0.0957726
-0.0808772 0.0795765 0.0144589
-0.104435 0.0455615 -0.00742675
-0.163806 0.0534688 -0.0571968
-0.065919 0.109208 -0.0946324
-0.0709598 0.102187 -0.0975098
-0.0581574 0.119098 -0.100711
-0.11853 0.0511141 0.00158775
-0.18497 0.0424743 -0.0310062
-0.0644967 0.0928554 -0.101194
-0.0715603 0.0861226 -0.0983864
-0.089871 0.0979114 -0.103406
-0.178841 0.0333592 -0.0436236
-0.11736 0.0850894 -0.102649
-0.139825 0.0802587 -0.0886049
-0.0735349 0.0977997 -0.00725852
-0.0876142 0.0829441 -0.104139
-0.0667222 0.134256 -0.0958105
-0.073026 0.131637 -0.103239
-0.0689293 0.126342 -0.0957024
-0.0672548 0.0999172 -0.0987092
-0.193623 0.00892431 -0.101622
-0.174552 0.039182 -0.0220236
-0.176604 0.0223336 -0.0694745
-0.112012 0.0547009 -0.000694581
-0.182714 0.0260241 -0.0620799
-0.0747511 0.111521 -0.0960312
-0.0693133 0.109551 -0.0973978
-0.0732447 0.0959447 -0.102348
-0.144637 0.0647662 -0.0691732
-0.0726232 0.10781 -0.0950484
-0.0749893 0.101253 -0.0997149
-0.0718745 0.0929816 -0.100912
-0.0733915 0.0858228 -0.100391
-0.0660584 0.0388985 -0.0553552
-0.154318 0.0623567 0.000166498
-0.129017 0.0955925 -0.100252
-0.152654 0.0649362 -0.00555123
-0.185167 0.0210325 -0.066128
-0.0956899 0.0802159 -0.100938
-0.176635 0.0585185 -0.0010738
-0.0796805 0.116862 -0.100636
-0.0903686 0.0588608 -0.0163678
-0.144846 0.0562959 -0.0653107
-0.0799788 0.124451 -0.0920139
-0.0771316 0.115471 -0.0999952
-0.0766049 0.104417 -0.1034
-0.075929 0.103047 -0.0998056
-0.0809577 0.0951908 -0.106067
-0.0785742 0.0962094 -0.102896
-0.0782269 0.0860263 -0.106098
-0.112327 0.0652139 -0.000947753
-0.108372 0.0675209 -0.0924155
-0.124189 0.0457967 -0.0668153
-0.18066 0.0171514 -0.0716
-0.192741 0.0655629 -0.10077
-0.102681 0.0656779 -0.0954848
-0.185139 0.0480638 -0.0156302
-0.143067 0.0354951 -0.0225203
-0.0869486 0.127757 -0.0879581
-0.0851433 0.121156 -0.095885
-0.0848657 0.120817 -0.101025
-0.176792 0.0343099 -0.0475203
-0.0708263 0.040722 -0.0466348
-0.179149 0.0325766 -0.0514969
-0.197093 0.014217 -0.097774
-0.203004 0.0117687 -0.0985796
-0.203689 0.017113 -0.086843
-0.123535 0.114751 -0.0334331
-0.203551 0.015028 -0.0867937
-0.187417 0.042229 -0.0310889
-0.185934 0.0390388 -0.0346952
-0.139399 0.0303082 -0.0179397
-0.19953 0.0232741 -0.0822681
-0.196254 0.0197899 -0.082749
-0.158606 0.0335614 -0.0136826
-0.117812 0.106187 -0.103999
-0.185283 0.0432284 -0.024082
-0.0751097 0.125773 -0.0985025
-0.120072 0.116252 -0.101788
-0.121142 0.115238 -0.104087
-0.188843 0.0641899 -0.0604587
-0.125118 0.110303 -0.0977196
-0.178805 0.0151024 -0.0773661
-0.0761625 0.133093 -0.0963804
-0.0757038 0.124691 -0.0925264
-0.127219 0.113942 -0.10037
-0.196608 0.0270519 -0.0815039
-0.200714 0.0251227 -0.0772665
-0.188323 0.0353637 -0.052443
-0.0746708 0.134345 -0.0909016
-0.116006 0.121473 -0.0990178
-0.133644 0.106921 -0.0999047
-0.166022 0.0752561 -0.0442346
-0.197471 0.0245195 -0.0698073
-0.119395 0.11705 -0.0975055
-0.134858 0.106787 -0.0951372
-0.124633 0.11747 -0.0957073
-0.139962 0.103646 -0.0961082
-0.147171 0.0517419 -0.0022386
-0.192152 0.0295576 -0.076217
-0.198436 0.0306435 -0.0756477
-0.19727 0.0193447 -0.0705687
-0.0964634 0.0875492 -0.106069
-0.126637 0.117708 -0.0953163
-0.140993 0.102378 -0.0933694
-0.198496 0.0279508 -0.0771494
-0.196466 0.0231067 -0.0691987
-0.0722453 0.135771 -0.0863895
-0.133226 0.116145 -0.0917771
-0.135158 0.0296657 -0.0351121
-0.137501 0.0462575 0.00257733
-0.118052 0.125452 -0.0931235
-0.124148 0.119401 -0.0947806
-0.143168 0.0957324 -0.0863578
-0.115863 0.101664 -0.0222567
-0.194103 0.0321604 -0.0694393
-0.191068 0.043969 -0.0399553
-0.0723779 0.0496722 -0.00355702
-0.0769234 0.0559372 -0.000118044
-0.0866884 0.0576542 0.00610667
-0.0809282 0.0600292 0.011056
-0.084971 0.0694342 0.0114106
-0.142649 0.0479706 -0.00379591
-0.11965 0.0553662 -0.0735569
-0.0753843 0.0437173 -0.00157129
-0.0805226 0.0434089 -0.00474258
-0.0825167 0.0457846 -0.00281828
-0.130436 0.0618187 0.00615578
-0.0818895 0.0564249 0.00164595
-0.0848263 0.0652495 0.0101678
-0.088092 0.0740851 0.0113011
-0.129497 0.0644782 0.00173654
-0.180439 0.0705579 -0.00326634
-0.143468 0.0538772 -0.00250508
-0.186601 0.0635772 -0.0113764
-0.134899 0.0651594 -0.0734977
-0.0827865 0.0455445 -0.00275535
-0.0794581 0.046096 -0.00604675
-0.0817672 0.0592889 -0.00033003
-0.183404 0.068036 -0.000742318
-0.0763443 0.0881346 -0.00628869
-0.111521 0.105058 -0.0162719
-0.118608 0.084154 -0.103363
-0.104518 0.0843329 -0.10269
-0.136764 0.0585051 0.00245218
-0.0852449 0.0637817 0.00361912
-0.164104 0.0311491 -0.036109
-0.0805509 0.0955918 -0.000852881
-0.134514 0.0516435 0.000727474
-0.0843779 0.0351168 -0.0116961
-0.0844013 0.0443923 -0.00817259
-0.08644 0.0490918 -0.00769012
-0.0822407 0.05229 -0.00708895
-0.0849652 0.0538953 -0.0101398
-0.179662 0.0674401 -0.000745142
-0.14891 0.0535559 -0.00244962
-0.127699 0.0473423 0.00540114
-0.119962 0.109743 -0.0241607
-0.184618 0.0626415 -0.00450097
-0.0867794 0.0513573 -0.0122074
-0.0841456 0.0586744 -0.0148952
-0.134975 0.0471882 -0.000772588
-0.190868 0.0634509 -0.0661141
-0.0887189 0.0652328 0.0048859
-0.0863397 0.0522388 -0.0163271
-0.190954 0.0566137 -0.0126286
-0.0855346 0.0939134 -0.00830329
-0.161528 0.0727754 0.00513473
-0.12216 0.109402 -0.0276873
-0.0963653 0.0689551 -0.0986501
-0.0937709 0.0657026 -0.0104786
-0.0899886 0.0683999 -0.00932458
-0.096552 0.0754395 -0.00851954
-0.0988422 0.0793176 -0.00225899
-0.0891319 0.103251 -0.0201801
-0.157631 0.0332267 -0.0364855
-0.0938845 0.110243 -0.0197031
-0.119332 0.0475795 -0.0687889
-0.0936908 0.103754 -0.0201207
-0.0960172 0.108958 -0.0155723
-0.189525 0.0618555 -0.0980093
-0.176557 0.0682476 -0.09047
-0.1844 0.0558304 -0.061315
-0.167559 0.046645 -0.0530472
-0.110254 0.0722408 -0.00196582
-0.100845 0.044703 -0.0843887
-0.134572 0.0376702 -0.0570461
-0.172217 0.0552443 -0.0556307
-0.102821 0.0987701 -0.0190643
-0.102202 0.0995505 -0.0184285
-0.156169 0.0527185 -0.0553485
-0.170071 0.0363541 -0.0373203
-0.147949 0.0443345 -0.0542978
-0.130392 0.0498593 -0.0686051
-0.184963 0.065157 -0.10235
-0.0914658 0.0571876 -0.0189199
-0.0640607 0.0335749 -0.0404706
-0.0602128 0.0362416 -0.0407206
-0.0641362 0.0359724 -0.0408691
-0.0640557 0.0396444 -0.0347993
-0.0690145 0.0390654 -0.0339194
-0.0549923 0.0613817 -0.0650248
-0.110728 0.074951 -0.0952499
-0.0782969 0.0319008 -0.0111858
-0.176076 0.0501754 -0.00563094
-0.0663687 0.0352619 -0.0454921
-0.0851234 0.088634 -0.103283
-0.192514 0.00824122 -0.0940324
-0.177221 0.0519705 -0.00241626
-0.0802533 0.0367931 -0.0152772
-0.180348 0.0183244 -0.0727541
-0.0629784 0.0348762 -0.0474096
-0.0815698 0.0357659 -0.0179597
-0.0850607 0.0606154 -0.00149887
-0.17126 0.0359566 -0.0296583
-0.0750294 0.0420272 -0.0262274
-0.0839498 0.0612369 -0.0020551
-0.0713964 0.0411303 -0.0415581
-0.0738979 0.0419399 -0.0336907
-0.0769799 0.0416896 -0.0355297
-0.083708 0.039956 -0.0146094
-0.0847741 0.0647868 -0.00516948
-0.0905033 0.0630115 -0.00329171
-0.0864715 0.0610606 0.00421486
-0.0679894 0.0451051 -0.0533011
-0.0680087 0.0401869 -0.0490452
-0.133084 0.0586447 -0.0723669
-0.0850109 0.0470281 -0.0210619
-0.191546 0.04172 -0.016869
-0.0746213 0.0482128 -0.0401918
-0.132186 0.086533 -0.093945
-0.117323 0.0875371 -0.101893
-0.0784919 0.0429647 -0.0274181
-0.085247 0.042005 -0.0149929
-0.176389 0.0294839 -0.0611841
-0.196645 0.0121768 -0.0818008
-0.0899909 0.0482819 -0.0168442
-0.0895781 0.0671961 -0.00931012
-0.131226 0.0649957 -0.0872632
-0.0737616 0.045914 -0.0499277
-0.0960234 0.084223 -0.100433
-0.0992791 0.0828752 -0.100475
-0.0732118 0.052406 -0.0493663
-0.0760002 0.0480835 -0.0446228
-0.0761785 0.051933 -0.0421796
-0.124369 0.0703852 -0.0864367
-0.0865898 0.042299 -0.0256056
-0.0707377 0.0492013 -0.0554265
-0.0738679 0.0503394 -0.0513814
-0.10408 0.101789 -0.108538
-0.0724222 0.049228 -0.0603462
-0.14963 0.0415922 -0.0493424
-0.130517 0.0658253 -0.0813114
-0.147438 0.0442151 -0.0596043
-0.0916885 0.0403266 -0.032637
-0.0929213 0.0465419 -0.0258138
-0.0979904 0.0476063 -0.0209128
-0.0953782 0.0518475 -0.01508
-0.1222 0.091472 -0.104802
-0.13376 0.0621195 -0.0787241
-0.0775532 0.0470326 -0.0672062
-0.0801909 0.0472595 -0.061645
-0.0834619 0.0490593 -0.0578043
-0.0800381 0.0554192 -0.0463558
-0.129662 0.0900506 -0.0971054
-0.0818735 0.0441383 -0.069444
-0.0840518 0.050272 -0.0546581
-0.0985672 0.0354949 -0.0232156
-0.105375 0.0392243 -0.0192307
-0.101856 0.044961 -0.0161644
-0.118512 0.0470919 0.00083315
-0.0799356 0.0468223 -0.0728531
-0.0855521 0.0428569 -0.0718699
-0.0859138 0.0453724 -0.063204
-0.0838408 0.0453408 -0.0590756
-0.0863608 0.0492028 -0.0597832
-0.0836719 0.0530906 -0.0521247
-0.0557928 0.0493621 -0.0562842
-0.105871 0.0415547 -0.00730773
-0.127906 0.0966815 -0.0985098
-0.113363 0.0332462 -0.0115496
-0.111926 0.0417696 -0.0122891
-0.106777 0.0317385 -0.0238657
-0.112327 0.0333608 -0.0173404
-0.115467 0.0390781 -0.00810203
-0.192644 0.0431201 -0.0241862
-0.0905256 0.0464012 -0.0689914
-0.0916505 0.0448646 -0.0667522
-0.0910697 0.0412308 -0.0609971
-0.0941416 0.0454174 -0.0559426
-0.096408 0.0479223 -0.0538562
-0.0748891 0.0342047 -0.0179857
-0.105655 0.0313297 -0.0265032
-0.134537 0.0994722 -0.0973675
-0.114522 0.0296128 -0.0193429
-0.123486 0.0332098 -0.0117739
-0.174691 0.0391978 -0.0184304
-0.108154 0.0710034 -0.097514
-0.116338 0.0278276 -0.0229003
-0.114951 0.0265538 -0.0179531
-0.116487 0.0324488 -0.0178285
-0.122121 0.0375611 -0.00701879
-0.118311 0.0857335 -0.100235
-0.106011 0.070485 -0.0967544
-0.0957515 0.0388265 -0.0691433
-0.0972554 0.0481657 -0.0622997
-0.100204 0.0478799 -0.0631217
-0.0903804 0.0876547 -0.102612
-0.097588 0.0430393 -0.0678023
-0.112449 0.0299118 -0.0336239
-0.127364 0.0344303 -0.00667791
-0.125631 0.041255 -0.0041944
-0.11764 0.0524525 -0.0776998
-0.130719 0.0636906 -0.0775545
-0.121102 0.0240852 -0.0306738
-0.117233 0.0233017 -0.02426
-0.123981 0.0256413 -0.0269352
-0.120801 0.0289008 -0.0166688
-0.12588 0.0328135 -0.0159025
-0.131023 0.0428545 0.000818078
-0.125714 0.0435922 -0.00216393
-0.0679803 0.120929 -0.0979476
-0.104339 0.0458645 -0.0700902
-0.105461 0.0411035 -0.0587852
-0.126706 0.0339827 -0.0129246
-0.10082 0.0412553 -0.0784306
-0.102418 0.0426866 -0.0739144
-0.183056 0.0419319 -0.0320425
-0.125972 0.0286462 -0.0263081
-0.130031 0.0258579 -0.0256657
-0.126598 0.0261182 -0.019229
-0.131611 0.0305761 -0.0200248
-0.131163 0.0329985 -0.0121455
-0.130709 0.0354204 -0.00551951
-0.135026 0.0391197 -0.0028903
-0.071718 0.0324218 -0.0150987
-0.066168 0.0406332 -0.0284014
-0.066721 0.0471831 -0.0580298
-0.111585 0.056252 -0.0835209
-0.120072 0.056142 -0.078038
-0.0850429 0.0779365 -0.101313
-0.100997 0.0694265 -0.102029
-0.0994662 0.051157 -0.0850765
-0.128115 0.0757963 -0.0882341
-0.115223 0.0993696 -0.103364
-0.0577512 0.0528236 -0.0623684
-0.0568235 0.0405019 -0.0487452
-0.0605539 0.0423743 -0.0565692
-0.110233 0.0617265 -0.0901661
-0.132138 0.0744029 -0.087364
-0.0822338 0.0384451 -0.0222313
-0.112544 0.0606993 -0.08159
-0.0543189 0.0457426 -0.0604609
-0.0698812 0.0367094 -0.0233568
-0.128452 0.0400328 -0.0546743
-0.10619 0.0768644 -0.0949442
-0.145703 0.0776328 -0.0798622
-0.0956097 0.0940478 -0.106837
-0.0634892 0.0783147 -0.0940412
-0.109174 0.0551278 -0.083201
-0.0607156 0.109813 -0.095459
-0.0956725 0.0503366 -0.0869173
-0.0777359 0.0347199 -0.0155458
-0.0528204 0.0706041 -0.0774612
-0.0772699 0.0854743 -0.104729
-0.106366 0.0443819 -0.0835481
-0.0704017 0.0413003 -0.0226375
-0.0694973 0.0824658 -0.0984452
-0.158464 0.0562513 -0.055397
-0.0524444 0.0500936 -0.0559094
-0.147213 0.0817306 -0.0756922
-0.157979 0.0577921 -0.0569967
-0.142747 0.0828501 -0.0821469
-0.140349 0.0856313 -0.0825041
-0.142059 0.0874761 -0.0832138
-0.138356 0.0916966 -0.0910077
-0.138848 0.0987123 -0.0906773
-0.161162 0.0494459 -0.0541517
-0.141126 0.0857586 -0.0889183
-0.136886 0.0933843 -0.0916145
-0.133249 0.0979488 -0.0948078
-0.15676 0.0474742 -0.0520006
-0.0479692 0.07518 -0.0732273
-0.0500695 0.0642899 -0.0677761
-0.0539518 0.0652033 -0.0661714
-0.0443567 0.0748783 -0.0753798
-0.0492032 0.0673404 -0.0732735
-0.0509108 0.066535 -0.071392
-0.054203 0.0635315 -0.0689197
-0.13079 0.0328581 -0.0538045
-0.176148 0.0568076 -0.0652423
-0.0714806 0.0349203 -0.0136679
-0.131539 0.0321777 -0.0486038
-0.133789 0.0327962 -0.0383563
-0.172253 0.0621096 -0.0821379
-0.0440396 0.104645 -0.0704175
-0.0465593 0.101523 -0.0765988
-0.0525972 0.0745848 -0.0824966
-0.0539643 0.0712149 -0.0764722
-0.0561146 0.0651352 -0.0776406
-0.0637406 0.0616035 -0.0673997
-0.065471 0.0446727 -0.0624947
-0.0522405 0.102413 -0.085868
-0.177455 0.0620067 -0.0803238
-0.049439 0.109204 -0.0876807
-0.0545052 0.0735332 -0.0845991
-0.0590059 0.0676912 -0.0793375
-0.115218 0.0444217 -0.00190382
-0.0630592 0.0713758 -0.0845615
-0.0635725 0.0632587 -0.0823766
-0.0640568 0.0595904 -0.0758767
-0.0658168 0.053961 -0.0761168
-0.0673604 0.0482407 -0.0729965
-0.0638101 0.0505969 -0.0699354
-0.0727221 0.0466285 -0.0680143
-0.0539653 0.104868 -0.0937932
-0.0617544 0.0758289 -0.0899315
-0.052077 0.103382 -0.0888714
-0.0563005 0.0799113 -0.0889561
-0.073108 0.047896 -0.065784
-0.0788844 0.0541385 -0.0478347
-0.0834797 0.0490164 -0.0345422
-0.17467 0.0703946 -0.0932369
-0.0524082 0.11189 -0.0935701
-0.0656694 0.0653757 -0.087571
-0.0660081 0.0664616 -0.0817282
-0.0685343 0.057665 -0.083087
-0.0736805 0.0534743 -0.0763638
-0.0707147 0.0521018 -0.0765311
-0.0769444 0.0450377 -0.0719638
-0.0670947 0.0712489 -0.0893951
-0.0659756 0.0725444 -0.0893268
-0.0680053 0.0674892 -0.0856442
-0.0701649 0.0610138 -0.0800131
-0.0866623 0.0521693 -0.0509322
-0.0886749 0.0504343 -0.0422266
-0.0880534 0.0467565 -0.0394877
-0.0789138 0.0542164 -0.0814157
-0.0908648 0.041038 -0.0429703
-0.0689353 0.0713139 -0.0954043
-0.0754742 0.0690315 -0.0926852
-0.0762866 0.0631771 -0.0880451
-0.0772467 0.0547956 -0.088682
-0.0825806 0.049487 -0.0808481
-0.0834795 0.0531372 -0.0469787
-0.094793 0.0436241 -0.0361547
-0.0895186 0.0496397 -0.0471689
-0.0913411 0.0459235 -0.0421816
-0.0944825 0.045738 -0.028218
-0.155929 0.0315733 -0.0362756
-0.0844589 0.0461198 -0.0757747
-0.0965035 0.040848 -0.029629
-0.10021 0.0378146 -0.0264831
-0.0746443 0.084236 -0.10066
-0.073834 0.0794562 -0.100494
-0.0750582 0.0730572 -0.0960625
-0.0755434 0.072666 -0.0936332
-0.0787817 0.0675899 -0.0953353
-0.0810863 0.060572 -0.0927677
-0.0859738 0.0587894 -0.088022
-0.0840223 0.0537464 -0.0879721
-0.0853977 0.0496405 -0.0858265
-0.0861607 0.0460351 -0.0807358
-0.0844663 0.0431248 -0.0781941
-0.0868316 0.0461177 -0.0746181
-0.100622 0.0353814 -0.0349553
-0.0981735 0.0490461 -0.0521402
-0.100432 0.0445519 -0.0492932
-0.100102 0.0413143 -0.0423328
-0.104032 0.0375388 -0.0337409
-0.10563 0.031425 -0.0303205
-0.0864405 0.042052 -0.0742525
-0.104276 0.0329324 -0.0331403
-0.0800631 0.08012 -0.102936
-0.0843583 0.0796146 -0.101007
-0.0816735 0.0753625 -0.0989159
-0.0836852 0.0670902 -0.0945042
-0.0857804 0.0608704 -0.0937362
-0.0847158 0.0554734 -0.0931108
-0.0871478 0.0567318 -0.088025
-0.0897907 0.0517007 -0.0894123
-0.0884858 0.049834 -0.0848986
-0.0898164 0.0453741 -0.076457
-0.092872 0.041173 -0.0776582
-0.10256 0.0510737 -0.0584998
-0.10046 0.0445223 -0.0554704
-0.100189 0.0441559 -0.0543738
-0.101899 0.0411574 -0.048762
-0.105352 0.0378045 -0.04771
-0.105332 0.0336081 -0.0391543
-0.106901 0.0333009 -0.0384708
