ply
format ascii 1.0
comment Created by Open3D
element vertex 1593
property double x
property double y
property double z
end_header
0.16089 -0.0113505 -0.157078
0.112496 -0.0778713 -0.134001
0.0839582 -0.116715 -0.134794
0.168485 -0.0636488 -0.155631
0.157196 -0.0375984 -0.137265
0.179586 -0.00242802 -0.171016
0.100561 -0.00420443 -0.165644
0.114109 -0.123103 -0.149056
0.0915905 -0.119326 -0.14084
0.111712 -0.00991891 -0.115659
0.162812 -0.0396132 -0.132111
0.111028 -0.00231675 -0.165569
0.0937934 -0.137078 -0.159541
0.125832 -0.101361 -0.141451
0.0341315 -0.0955782 -0.165504
0.0344334 -0.104702 -0.160943
0.127841 -0.0684579 -0.15424
0.14429 -0.0303541 -0.134784
0.172947 -0.0423025 -0.141355
0.120352 -0.124249 -0.165389
0.0985163 0.00251427 -0.133769
0.100178 -0.135986 -0.167307
0.177392 -0.0495864 -0.13609
0.114267 -0.0109523 -0.112695
0.10225 -0.02954 -0.124899
0.0973036 -0.134437 -0.153528
0.12598 -0.0751433 -0.143208
0.122141 -0.070314 -0.14684
0.139859 -0.00956228 -0.135267
0.116111 -0.0774046 -0.131445
0.124949 -0.0185083 -0.114055
0.125655 -0.0113345 -0.120394
0.162297 -0.0390832 -0.137394
0.162372 -0.0317611 -0.138702
0.0264103 -0.0383977 -0.166162
0.156079 -0.00185388 -0.15442
0.160558 -0.0102757 -0.151661
0.112762 -0.131287 -0.154191
0.112617 -0.128066 -0.178859
0.151046 -0.0328493 -0.137561
0.15196 -0.0433221 -0.133759
0.0298386 -0.0608301 -0.168567
0.165221 -0.01144 -0.159033
0.0698725 -0.0669024 -0.133837
0.122162 0.00206383 -0.148202
0.117602 -0.0661267 -0.134187
0.170515 -0.0386523 -0.142524
0.0856665 -0.00692826 -0.171482
0.150693 -0.0176474 -0.154429
0.135164 -0.0118264 -0.159583
0.163461 -0.00365082 -0.157282
0.112712 -0.121419 -0.136863
0.0983396 -0.127367 -0.150658
0.0977847 -0.0738879 -0.132494
0.0839082 -0.0209972 -0.121488
0.101713 -0.100839 -0.131051
0.163637 -0.0435958 -0.138216
0.120005 -0.0200199 -0.173371
0.179657 -0.00429713 -0.176384
0.12168 0.0063527 -0.12938
0.100813 -0.0968299 -0.13226
0.121717 -0.118357 -0.185874
0.11285 -0.130243 -0.17251
0.0963701 -0.0937023 -0.129146
0.119118 -0.0222899 -0.114856
0.10023 -0.01671 -0.115154
0.127608 -0.0685981 -0.152072
0.128973 -0.0852039 -0.149061
0.123424 -0.022528 -0.116529
0.0394364 -0.122217 -0.170821
0.0825199 -0.104822 -0.133895
0.0930375 -0.078008 -0.131475
0.108147 -0.130848 -0.153825
0.105754 -0.132273 -0.156712
0.108742 -0.00960694 -0.170554
0.131782 -0.00455942 -0.159699
0.125361 -0.0930232 -0.184654
0.123938 -0.0901649 -0.136979
0.127611 -0.0848878 -0.139525
0.126212 -0.0827993 -0.143599
0.113435 -0.0447773 -0.141266
0.113513 -0.0655576 -0.139323
0.139312 -0.0162061 -0.138378
0.117337 -0.0348933 -0.137334
0.0314162 -0.0481907 -0.163173
0.130084 -0.0802231 -0.149495
0.114271 0.00630189 -0.138336
0.134765 -0.0742359 -0.17063
0.0259239 -0.0565622 -0.167878
0.195936 -0.00724955 -0.18062
0.112201 -0.0555774 -0.142418
0.118779 -0.00171475 -0.121088
0.0818269 -0.0024472 -0.16713
0.128095 -0.0540192 -0.161731
0.117986 -0.105874 -0.138472
0.106508 -0.0607509 -0.138459
0.104322 -0.0668784 -0.13369
0.102802 -0.0672802 -0.134113
0.0854588 -0.0168162 -0.121327
0.0339223 -0.108245 -0.167383
0.147179 -0.0286052 -0.135419
0.152986 -0.0364303 -0.13952
0.134225 -0.0238681 -0.128444
0.116416 -0.120327 -0.149411
0.126205 -0.122248 -0.17186
0.0882286 -0.0116599 -0.118998
0.123684 -0.121468 -0.174056
0.103041 -0.1385 -0.171582
0.100421 -0.0210395 -0.191805
0.0992233 -0.0106094 -0.189938
0.142139 -0.0199653 -0.138235
0.143711 -0.018305 -0.141694
0.0760757 -0.0160228 -0.144331
0.124636 0.00314785 -0.151188
0.0403739 -0.0605829 -0.166912
0.156282 -0.0125503 -0.15564
0.0258594 -0.0668518 -0.163202
0.0336181 -0.0740394 -0.159634
0.0249702 -0.0723782 -0.158536
0.0317766 -0.0795016 -0.158562
0.033279 -0.0830557 -0.159577
0.0320343 -0.0864358 -0.162643
0.0363973 -0.097199 -0.165237
0.0420574 -0.106618 -0.158127
0.101804 -0.110015 -0.134567
0.119591 -0.0721957 -0.139072
0.130609 -0.0319266 -0.137853
0.191485 -0.0114311 -0.181203
0.172511 -0.0402049 -0.143047
0.108237 -0.0327337 -0.130728
0.101597 -0.0200829 -0.120888
0.0941598 0.00463946 -0.143949
0.101658 -0.130831 -0.1727
0.0985757 -0.0816071 -0.129934
0.159481 -0.0359747 -0.150375
0.16011 -0.0369112 -0.149819
0.0571942 -0.0430967 -0.160347
0.112691 -0.0482697 -0.192692
0.105356 -0.0147287 -0.118141
0.183103 -0.00741949 -0.183179
0.113302 -0.0843382 -0.131695
0.124984 -0.0480249 -0.153675
0.11982 -0.0113503 -0.114099
0.154706 -0.0074386 -0.153062
0.0290049 -0.0389113 -0.167636
0.12657 -0.0654703 -0.155433
0.0412532 -0.091212 -0.157721
0.0374509 -0.100117 -0.156632
0.11739 -0.00531096 -0.11931
0.0942925 -0.00537493 -0.11844
0.11922 -0.091016 -0.184707
0.0931428 -0.0130366 -0.194681
0.0948423 -0.0190941 -0.192778
0.152924 -0.0138411 -0.154753
0.0687282 -0.0714682 -0.132724
0.0794433 -0.088522 -0.132175
0.0754263 -0.142493 -0.165704
0.0339596 -0.0509907 -0.165278
0.14945 -0.00866305 -0.149984
0.126148 0.00914573 -0.121417
0.133068 -0.012345 -0.121651
0.133595 -0.00316931 -0.125653
0.0783719 -0.0822555 -0.130313
0.129696 -0.113258 -0.165994
0.0331678 -0.0642835 -0.164286
0.0997244 -0.0536134 -0.137281
0.102573 -0.133186 -0.183274
0.117296 -0.0668875 -0.142194
0.0547403 -0.128053 -0.174965
0.151536 -0.0343604 -0.148348
0.1751 -0.0474168 -0.145218
0.112891 -0.117933 -0.199442
0.110055 -0.0580872 -0.193752
0.128219 0.0100668 -0.137673
0.103905 -0.12562 -0.149458
0.120174 -0.0960944 -0.135299
0.115153 -0.0616528 -0.200741
0.0317554 -0.0714801 -0.156999
0.0372317 -0.0819124 -0.156284
0.0402948 -0.0955738 -0.15362
0.0401188 -0.10315 -0.15509
0.0419702 -0.105716 -0.15491
0.123967 -0.0279186 -0.118781
0.10675 -0.0185772 -0.113836
0.0903445 -0.00999547 -0.183369
0.0502008 -0.135997 -0.171568
0.181686 -0.0522081 -0.140079
0.17922 -0.0528388 -0.14069
0.119385 -0.0874461 -0.137347
0.141961 -0.0176687 -0.15099
0.0341835 -0.0405683 -0.167141
0.0363178 -0.0627521 -0.166116
0.0371903 -0.0771514 -0.15657
0.0395434 -0.0908266 -0.153199
0.040072 -0.0978632 -0.151932
0.0385481 -0.104015 -0.151336
0.0447785 -0.109102 -0.152669
0.111413 -0.134166 -0.17079
0.0968401 -0.000134786 -0.157231
0.117724 0.00456834 -0.118548
0.100115 -0.133169 -0.161095
0.104496 -0.133571 -0.160696
0.143169 -0.0175655 -0.149607
0.0386991 -0.0461852 -0.168023
0.0425581 -0.0645031 -0.167729
0.117607 -0.0447622 -0.145072
0.0818266 -0.0815347 -0.136401
0.121655 -0.0430154 -0.146659
0.149193 -0.00843817 -0.148153
0.0389166 -0.0709571 -0.157976
0.0427627 -0.0758694 -0.159392
0.0396971 -0.082027 -0.155998
0.0411118 -0.0837202 -0.157235
0.146734 -0.0130413 -0.151072
0.110586 0.00892699 -0.156923
0.113248 -0.0626427 -0.207856
0.187848 -0.00770842 -0.180134
0.136456 -0.0237935 -0.158899
0.101111 0.00772378 -0.147707
0.124924 -0.121879 -0.168068
0.118706 -0.0361951 -0.133334
0.110709 -0.0769713 -0.132628
0.160189 -0.0162891 -0.166999
0.0920283 -0.00173312 -0.155793
0.10911 0.00428025 -0.125707
0.114135 -0.0644882 -0.139565
0.0549519 -0.129421 -0.168959
0.0581908 -0.137176 -0.168001
0.0591978 -0.138203 -0.168095
0.0999985 -0.049098 -0.137464
0.166062 -0.0131404 -0.178755
0.0913459 -0.114423 -0.137521
0.17873 -0.047974 -0.148871
0.071743 -0.0139429 -0.145969
0.12148 -0.096905 -0.139223
0.0793267 -0.0776859 -0.131955
0.120864 -0.0781878 -0.135517
0.0450295 -0.0444418 -0.170122
0.0452079 -0.0482546 -0.165196
0.0411108 -0.0602645 -0.165364
0.044267 -0.073694 -0.16353
0.109325 -0.13287 -0.174293
0.0826834 -0.00809878 -0.128367
0.105337 0.00634614 -0.158038
0.106811 -0.0855966 -0.126926
0.127328 -0.0926267 -0.142985
0.157101 -0.0621007 -0.14752
0.115807 -0.00258675 -0.159597
0.119321 -0.100574 -0.134047
0.11017 -0.0471301 -0.140118
0.105878 -0.0486994 -0.136561
0.105214 -0.0723756 -0.137096
0.0977354 -0.0307623 -0.134796
0.163009 -0.0187794 -0.163041
0.107243 -0.00109165 -0.114927
0.0951093 -0.125054 -0.140693
0.108799 -0.121962 -0.137721
0.0973458 -0.0560525 -0.137783
0.129764 -0.0225597 -0.118128
0.0428029 -0.050691 -0.172265
0.146342 -0.0236029 -0.14056
0.0435364 -0.0772782 -0.154007
0.0929092 -0.00299612 -0.117449
0.0949068 -0.0360478 -0.138645
0.188405 -0.0685238 -0.151147
0.111808 -0.119866 -0.189748
0.0880769 -0.00301959 -0.158103
0.119367 -0.108409 -0.141667
0.0874792 -0.000624431 -0.16822
0.127491 -0.0199984 -0.124318
0.142201 -0.0041395 -0.142936
0.132526 -0.026992 -0.122503
0.121646 -0.0605499 -0.14832
0.132735 -0.00633187 -0.129453
0.173934 -0.00122668 -0.172678
0.102872 -0.0120688 -0.183493
0.047 -0.0813621 -0.152494
0.044648 -0.0879063 -0.150388
0.0455712 -0.0942755 -0.145986
0.042308 -0.0978029 -0.150945
0.0482569 -0.104569 -0.149238
0.105469 -0.129976 -0.18796
0.062886 -0.133109 -0.165726
0.102476 -0.0122818 -0.109795
0.120949 -0.0552629 -0.168958
0.0690124 -0.0722098 -0.134469
0.151559 -0.00592374 -0.146204
0.133109 -0.0200524 -0.128478
0.126562 -0.00648476 -0.121442
0.120551 -0.0750307 -0.137439
0.128331 -0.114911 -0.173509
0.0474637 -0.0508073 -0.15941
0.0501141 -0.0589979 -0.162875
0.0487042 -0.0652306 -0.163189
0.0500398 -0.068957 -0.163535
0.130343 -0.00186938 -0.130633
0.129045 -0.0776223 -0.156303
0.127789 -0.104215 -0.146802
0.16471 -0.0381177 -0.14265
0.0987757 -0.0604652 -0.134343
0.109555 -0.0690209 -0.13572
0.176336 -0.0087693 -0.189803
0.135864 -0.0295843 -0.134007
0.105039 -0.0728755 -0.130388
0.0658644 -0.143872 -0.16459
0.0636295 -0.0143046 -0.177343
0.181434 -0.0656052 -0.15469
0.184844 -0.0530331 -0.138631
0.0656428 -0.0164869 -0.145976
0.0534462 -0.0401352 -0.189678
0.119535 -0.06041 -0.147634
0.128231 -0.00148889 -0.128133
0.125349 -0.0653639 -0.166251
0.126875 -0.0579913 -0.162461
0.178456 -0.0466795 -0.146198
0.0446926 -0.0871018 -0.145292
0.0450561 -0.0948024 -0.145211
0.0440443 -0.0978319 -0.14801
0.101667 -0.0360753 -0.138408
0.127117 -0.0862708 -0.14483
0.106726 -0.134671 -0.162336
0.10094 0.00265908 -0.158471
0.14072 -0.00999722 -0.166378
0.0744089 -0.00824938 -0.15249
0.107062 -0.0593732 -0.144994
0.129487 -0.0313261 -0.12636
0.102608 -0.011774 -0.180584
0.1069 -0.093837 -0.132009
0.104299 -0.0909738 -0.131675
0.100481 0.00523325 -0.146987
0.0967167 -0.0467823 -0.13472
0.136148 0.00130946 -0.138195
0.162028 -0.0174468 -0.173934
0.127598 -0.0373887 -0.16422
0.185029 -0.0079397 -0.178338
0.13732 -0.00386017 -0.132736
0.157907 -0.0167414 -0.169762
0.056365 -0.0367237 -0.179622
0.109731 -0.0508615 -0.140969
0.142419 0.00300367 -0.139682
0.109834 -0.0377466 -0.133551
0.134157 -0.0928301 -0.149673
0.0507854 -0.0815466 -0.145301
0.046516 -0.0848479 -0.139514
0.0491791 -0.0907002 -0.147313
0.0490723 -0.0971514 -0.14096
0.0506768 -0.102682 -0.142297
0.102028 -0.0722341 -0.132746
0.104078 -0.0871194 -0.129924
0.103365 -0.0818828 -0.129515
0.0549357 -0.0395164 -0.17454
0.0871084 -0.000678098 -0.156626
0.11571 -0.0553719 -0.189556
0.0665441 -0.137955 -0.164139
0.0690436 -0.146407 -0.1678
0.109767 -0.13363 -0.186935
0.0499046 -0.0381994 -0.171602
0.0478575 -0.0418162 -0.169289
0.127395 -0.0349037 -0.141056
0.0783663 -0.0939291 -0.131189
0.108623 -0.10526 -0.130443
0.0512214 -0.049784 -0.160935
0.0506452 -0.0574226 -0.153474
0.0553793 -0.0641824 -0.161804
0.121768 0.00276127 -0.125891
0.140243 -0.0172281 -0.160231
0.109453 -0.0885481 -0.131107
0.101757 -0.00350812 -0.116249
0.124374 -0.118972 -0.169787
0.103769 -0.111532 -0.130812
0.163758 -0.0423645 -0.152165
0.0501341 -0.0395521 -0.162453
0.128184 -0.112105 -0.146272
0.120955 -0.041443 -0.153864
0.146557 -0.00681435 -0.149978
0.160016 -0.00713176 -0.164988
0.0984868 -0.00764792 -0.177631
0.183207 0.0019581 -0.174498
0.104201 -0.0956195 -0.134621
0.188653 -0.0537018 -0.148301
0.104451 -0.0404053 -0.139387
0.125566 -0.0327216 -0.168773
0.123436 -0.109535 -0.18184
0.10582 0.00496921 -0.150779
0.0699047 -0.135295 -0.164594
0.0699336 -0.137357 -0.163297
0.0733175 -0.148772 -0.16469
0.161241 -0.0306435 -0.140761
0.0856663 -0.00144117 -0.175849
0.161367 -0.00192041 -0.166539
0.122495 -0.042412 -0.164079
0.0611001 -0.0637767 -0.148839
0.114583 -0.0290196 -0.185763
0.107777 -0.0137244 -0.176408
0.101317 -0.023861 -0.190406
0.107691 -0.0538626 -0.199677
0.0534443 -0.0976554 -0.139866
0.0523804 -0.109762 -0.143662
0.111463 -0.130253 -0.169736
0.135284 -0.00841833 -0.126297
0.0501567 -0.0364677 -0.159467
0.110064 -0.0166875 -0.177663
0.101505 -0.0289947 -0.197331
0.102075 -0.041549 -0.195208
0.0526666 -0.0441503 -0.15969
0.117714 -0.085721 -0.12919
0.115497 -0.108183 -0.13628
0.100838 -0.0373983 -0.139067
0.120848 0.0076547 -0.13572
0.13659 -0.0311536 -0.137259
0.147563 -0.0035493 -0.157528
0.0936376 -0.0016837 -0.163204
0.123859 -0.000556894 -0.165289
0.117397 -0.048059 -0.186567
0.112837 -0.00466156 -0.164376
0.116421 -0.0818104 -0.210696
0.118768 -0.0814934 -0.210121
0.117783 -0.0299689 -0.183327
0.126062 -0.0834395 -0.189834
0.0557224 -0.0547441 -0.15453
0.058561 -0.0585302 -0.15599
0.0584487 -0.0679769 -0.156181
0.116455 -0.0694699 -0.140932
0.121867 -0.0642757 -0.146998
0.0532005 -0.0824042 -0.145174
0.0557274 -0.0884376 -0.139817
0.0584133 -0.0915677 -0.137279
0.0554149 -0.102428 -0.144156
0.0566659 -0.105908 -0.139898
0.149978 -0.0479953 -0.144891
0.0924678 -0.133627 -0.154717
0.123835 -0.0269358 -0.169005
0.123073 -0.0646263 -0.185173
0.105729 -0.0526777 -0.1952
0.109108 -0.00691051 -0.167146
0.155927 -0.0449619 -0.1532
0.119296 -0.0844586 -0.2112
0.120629 -0.0928087 -0.191447
0.0568503 -0.0438911 -0.152742
0.120895 -0.00617139 -0.120105
0.106827 -0.100401 -0.131748
0.107283 -0.0111472 -0.176197
0.105255 0.00279079 -0.120886
0.125368 -0.014084 -0.163158
0.0743623 -0.138625 -0.162975
0.0779304 -0.146699 -0.168965
0.0962753 0.00477604 -0.130321
0.119515 -0.0983105 -0.13435
0.125448 -0.0145951 -0.16767
0.119034 -0.0157465 -0.169692
0.105184 -0.00940681 -0.183166
0.18598 -0.0140199 -0.192083
0.0794791 -0.138564 -0.168054
0.137947 -0.0272799 -0.135397
0.0550392 -0.0792054 -0.141607
0.127373 -0.0447594 -0.173882
0.110819 -0.0651391 -0.207143
0.176282 -0.0666872 -0.15679
0.161307 -0.0334712 -0.143758
0.154343 -0.0287299 -0.148949
0.19718 -0.00391623 -0.183981
0.175477 -0.0112139 -0.175926
0.129304 -0.0794654 -0.149617
0.117812 -0.0913369 -0.211254
0.172454 -0.0470035 -0.152309
0.14704 -0.029291 -0.146864
0.125053 -0.00459044 -0.169372
0.0602696 -0.0182139 -0.165113
0.125256 -0.0778242 -0.185791
0.142867 -0.0297757 -0.14771
0.189612 -0.0610077 -0.149441
0.0536637 -0.0731152 -0.140775
0.087404 -0.00947291 -0.120624
0.147794 -0.0181655 -0.158308
0.0886645 -0.00619819 -0.149878
0.171093 -0.0644206 -0.153549
0.0825208 -0.0882114 -0.132453
0.054352 -0.0312773 -0.164714
0.100334 -0.0364028 -0.199019
0.0620066 -0.0375559 -0.148654
0.0547618 -0.0455631 -0.151607
0.0579428 -0.0714474 -0.140102
0.0577095 -0.0788331 -0.141008
0.0645005 -0.0851771 -0.137912
0.0587818 -0.0932653 -0.134486
0.0612677 -0.0954124 -0.136362
0.0611671 -0.100137 -0.136615
0.157599 -0.052196 -0.144352
0.187377 -0.0142476 -0.184582
0.129316 -0.000915317 -0.142909
0.174182 -0.0122317 -0.18452
0.120538 -0.124295 -0.163776
0.140509 -0.00309688 -0.15964
0.185926 -0.046981 -0.140828
0.0666664 -0.0124049 -0.175403
0.0581655 -0.0314051 -0.147725
0.054368 -0.0342058 -0.152404
0.0619425 -0.0443844 -0.148582
0.0610888 -0.0486397 -0.150996
0.0637954 -0.0536774 -0.153374
0.0612885 -0.0568332 -0.15332
0.0593777 -0.0577792 -0.149891
0.176933 -0.0121618 -0.188663
0.109432 -0.128619 -0.188436
0.0282741 -0.0360456 -0.172229
0.124816 -0.0364144 -0.169907
0.167805 -0.00699672 -0.172659
0.134277 -0.0345853 -0.146509
0.158621 -0.0342796 -0.142676
0.174356 -0.00756599 -0.178969
0.118723 -0.113251 -0.136286
0.0602717 -0.0773211 -0.135209
0.127688 -0.0578581 -0.169994
0.156328 -0.0217691 -0.158647
0.0892061 -0.00611757 -0.141633
0.172818 -0.00584556 -0.188518
0.175603 -0.0165819 -0.176582
0.0941546 0.0006284 -0.143154
0.0592194 -0.0384478 -0.149923
0.0657671 -0.0667546 -0.150845
0.111429 0.00590451 -0.147504
0.0919404 0.000740412 -0.152299
0.124868 -0.0374993 -0.138397
0.17665 -0.0455206 -0.146364
0.13195 0.00380752 -0.135601
0.0817526 -0.014166 -0.145037
0.104458 0.0060536 -0.14965
0.0918766 -0.00763668 -0.15307
0.0596833 -0.0709767 -0.135235
0.0619198 -0.0795557 -0.133647
0.0628306 -0.0836932 -0.132208
0.062687 -0.0885798 -0.12991
0.0669219 -0.0960424 -0.129419
0.0652406 -0.0998455 -0.132665
0.0653818 -0.106308 -0.134237
0.126766 -0.0480633 -0.163545
0.107321 0.00979833 -0.158216
0.114801 -0.0411508 -0.141754
0.104428 -0.00265751 -0.173547
0.0608886 -0.028728 -0.143943
0.0632952 -0.0291846 -0.147243
0.0637887 -0.0320256 -0.145293
0.0609884 -0.0426565 -0.148263
0.0638081 -0.0486116 -0.147465
0.0658662 -0.052913 -0.146966
0.0657597 -0.0539276 -0.145938
0.0684111 -0.0533407 -0.144096
0.0672492 -0.0635208 -0.145735
0.129497 0.00520269 -0.130361
0.098832 -0.0672951 -0.135576
0.0855618 -0.0163135 -0.127068
0.142716 -0.00568242 -0.156168
0.166997 0.000916131 -0.169157
0.0664155 -0.0619028 -0.142366
0.095849 -0.00350853 -0.170189
0.0675228 -0.114325 -0.137474
0.134236 -0.00587106 -0.157787
0.134596 -0.09449 -0.168615
0.0651134 -0.106907 -0.135121
0.168138 -0.0131492 -0.17338
0.124955 0.00100903 -0.115845
0.129966 -0.0798853 -0.153149
0.0666645 -0.0773384 -0.13074
0.0716473 -0.0837339 -0.131381
0.068693 -0.0915867 -0.13116
0.0709448 -0.0926763 -0.131118
0.0680102 -0.0951416 -0.12908
0.113786 -0.116333 -0.139634
0.143504 -0.00274789 -0.13704
0.130312 -0.110307 -0.167096
0.0657961 -0.0263699 -0.142926
0.0662473 -0.0328871 -0.142163
0.0667528 -0.036629 -0.139191
0.0669674 -0.0474967 -0.137491
0.0701193 -0.0510098 -0.143356
0.0728731 -0.0619995 -0.141299
0.0760916 -0.108842 -0.130289
0.0759666 -0.112945 -0.134141
0.0633758 -0.0257311 -0.149423
0.108232 -0.0584804 -0.206351
0.175506 -0.0531824 -0.142121
0.0786569 -0.0104164 -0.145049
0.113009 0.008752 -0.138532
0.152936 -0.00530119 -0.162226
0.127242 -0.101708 -0.146132
0.0726637 -0.105238 -0.131094
0.167372 -0.00128661 -0.17504
0.121962 -0.0536464 -0.182972
0.129819 -0.0257091 -0.122653
0.0694112 -0.022129 -0.148214
0.0721395 -0.0474446 -0.139684
0.0774417 -0.111559 -0.134339
0.131138 -0.113783 -0.163516
0.122759 -0.113724 -0.145133
0.0729602 -0.0820709 -0.126501
0.135105 -0.0847843 -0.171528
0.0907129 0.0011854 -0.137895
0.0731746 -0.0207126 -0.137444
0.0671707 -0.027833 -0.141092
0.0746187 -0.0371481 -0.141645
0.0734992 -0.0428059 -0.13636
0.0758703 -0.0476394 -0.137702
0.073849 -0.0503212 -0.140754
0.077185 -0.054733 -0.139995
0.0737739 -0.0571232 -0.136825
0.0761559 -0.0673615 -0.136505
0.0739936 -0.0816731 -0.128037
0.0704717 -0.093879 -0.132299
0.0735436 -0.0950267 -0.129877
0.0783356 -0.0967692 -0.129787
0.0767278 -0.102373 -0.132559
0.082023 -0.112439 -0.135967
0.184963 -0.00470312 -0.178363
0.163913 -0.0460295 -0.137004
0.154519 -0.0279807 -0.134422
0.0772878 -0.0009771 -0.159211
0.188104 -0.0146997 -0.185495
0.115734 -0.0434445 -0.190142
0.0764811 -0.0263176 -0.141618
0.119471 -0.0528145 -0.147214
0.0755769 -0.0753165 -0.130767
0.073014 -0.0831038 -0.130148
0.0767311 -0.0898928 -0.127775
0.0843139 -0.105492 -0.135862
0.0924286 -0.00201511 -0.153392
0.0518804 -0.0237609 -0.15274
0.115831 -0.125072 -0.183072
0.0981455 -0.128734 -0.145685
0.130157 -0.0287926 -0.135046
0.10501 0.00451596 -0.129883
0.156826 -0.0109931 -0.170771
0.106774 -0.0445081 -0.193954
0.121705 -0.0456421 -0.150106
0.0770373 -0.0202767 -0.139968
0.0810355 -0.0281141 -0.137795
0.07578 -0.033299 -0.135854
0.075826 -0.0375445 -0.135655
0.0777686 -0.0421698 -0.134988
0.0782908 -0.0492276 -0.136438
0.0808426 -0.0608533 -0.137453
0.0782967 -0.0671172 -0.136924
0.0847569 -0.0985755 -0.129721
0.0876617 -0.0976244 -0.127869
0.0873988 -0.105145 -0.133915
0.0920355 -0.110781 -0.133558
0.131534 -0.0221445 -0.161349
0.15768 -0.00477159 -0.175923
0.104032 0.00733333 -0.138653
0.188306 -0.0123273 -0.191667
0.159648 -0.00361215 -0.157744
0.0534519 -0.0402182 -0.164637
0.118882 -0.122338 -0.159664
0.106627 -0.0358488 -0.19423
0.0795533 -0.0282051 -0.137075
0.0824953 -0.0402055 -0.139554
0.0805051 -0.0430422 -0.135116
0.0829083 -0.0562579 -0.139601
0.0873201 -0.0916619 -0.133645
0.107172 -0.00793024 -0.179977
0.171207 -0.0496662 -0.154484
0.0839022 -0.0200951 -0.117401
0.0750269 -0.0174278 -0.144387
0.118962 0.0056807 -0.143594
0.088013 -0.0682009 -0.13517
0.090434 -0.0679296 -0.134111
0.0883667 -0.0755033 -0.132869
0.0889761 -0.0760821 -0.132495
0.0892169 -0.0840876 -0.129128
0.092694 -0.0904652 -0.132054
0.0905044 -0.099601 -0.133109
0.0905785 -0.10308 -0.131583
0.0839994 -0.0130837 -0.142514
0.0838989 -0.0212263 -0.141594
0.0818351 -0.0224506 -0.136483
0.0809271 -0.031266 -0.133936
0.0809414 -0.03616 -0.140025
0.0906533 -0.0481828 -0.135941
0.087733 -0.0562661 -0.139235
0.0931861 -0.109318 -0.132146
0.126927 -0.0351143 -0.152595
0.0958816 -0.116843 -0.137663
0.107896 -0.128988 -0.179355
0.0922598 -0.0274753 -0.139578
0.0895869 -0.0678051 -0.1343
0.094173 -0.0723318 -0.134979
0.0937345 -0.0934825 -0.132266
0.0961229 -0.0986982 -0.132431
0.0929153 -0.104665 -0.131957
0.0985657 -0.111489 -0.132438
0.161933 -0.0450503 -0.139884
0.128852 -0.0254792 -0.162899
0.114273 -0.0449482 -0.192552
0.188016 -0.0596328 -0.153064
0.125206 -0.107374 -0.183959
0.136431 -0.0207004 -0.162716
0.171871 -0.0433495 -0.146708
0.125435 -0.0201174 -0.165833
0.165104 -0.0464546 -0.155623
0.0833494 -0.0201831 -0.138173
0.0883452 -0.0271024 -0.132844
0.0910689 -0.0285538 -0.139375
0.0861797 -0.0365143 -0.135519
0.0894254 -0.0402864 -0.133393
0.0923437 -0.0507253 -0.13912
0.0922477 -0.0797695 -0.133208
0.0962535 -0.0833736 -0.134682
0.101971 -0.112694 -0.133715
0.120873 -0.110505 -0.187234
0.0887386 -0.0229202 -0.129619
0.141982 -0.0346694 -0.151616
0.104217 -0.023697 -0.191102
0.109342 0.00812573 -0.132849
0.11487 -0.0549768 -0.198008
0.105649 -0.0306752 -0.192422
0.028718 -0.0788041 -0.160054
0.0240248 -0.0825312 -0.161334
0.126163 -0.00715898 -0.169843
0.169784 -0.0572807 -0.148133
0.105646 -0.11327 -0.132767
0.174199 -0.064931 -0.155886
0.142196 -0.0265066 -0.150793
0.0383995 -0.115692 -0.162742
0.0993824 -0.122568 -0.140093
0.117738 -0.0216018 -0.178979
0.0239847 -0.0503142 -0.169686
0.0289822 -0.0844697 -0.161694
0.028177 -0.0879841 -0.162229
0.0890049 -0.0229066 -0.124021
0.112224 -0.0297551 -0.125096
0.0385853 -0.116618 -0.165049
0.107037 -0.0397206 -0.130574
0.186106 -0.0564237 -0.148699
0.158724 -0.00993374 -0.173332
0.0881338 -0.124219 -0.140497
0.140505 -0.038236 -0.141405
0.0289948 -0.104584 -0.164695
0.0813984 -0.0104768 -0.135054
0.101334 -0.0358928 -0.12794
0.0275347 -0.0607722 -0.169784
0.12246 -0.083834 -0.205337
0.184151 -0.0616853 -0.150262
0.0441571 -0.123484 -0.176647
0.115076 -0.0224898 -0.180004
0.105282 -0.115346 -0.134876
0.118005 -0.0265569 -0.120585
0.173432 -0.0627191 -0.152254
0.168169 -0.0498262 -0.145105
0.0401076 -0.112554 -0.161969
0.0406695 -0.118329 -0.159849
0.0480084 -0.118027 -0.168276
0.0477429 -0.124457 -0.166105
0.0915841 -0.127255 -0.147672
0.049202 -0.128587 -0.171454
0.184305 -0.0626999 -0.154139
0.0846874 -0.0258006 -0.123134
0.10541 -0.0242565 -0.192584
0.114714 -0.0207862 -0.119366
0.143174 -0.0415245 -0.147849
0.169806 -0.0505989 -0.144494
0.173447 -0.0609821 -0.146817
0.0996649 -0.0298917 -0.123238
0.100539 -0.0185214 -0.112877
0.111436 -0.015355 -0.181586
0.146986 -0.0380229 -0.139337
0.110858 -0.0404856 -0.138879
0.105389 -0.12635 -0.189891
0.0565754 -0.129305 -0.171772
0.109805 -0.0209027 -0.116244
0.107956 -0.0246003 -0.18569
0.0543437 -0.139769 -0.177223
0.0668581 -0.00957544 -0.174117
0.0922976 -0.0213329 -0.119175
0.14839 -0.0417983 -0.14216
0.146382 -0.0428202 -0.143452
0.0950648 -0.0357396 -0.135046
0.110476 -0.0282641 -0.12816
0.0553685 -0.140993 -0.180178
0.060365 -0.150314 -0.179284
0.180964 -0.0652818 -0.149216
0.192729 -0.0608757 -0.149346
0.0962926 -0.121564 -0.138672
0.0992289 -0.027691 -0.12386
0.0562816 -0.145067 -0.175192
0.0590008 -0.145634 -0.177603
0.175899 -0.0633185 -0.146458
0.107351 -0.124888 -0.141018
0.124398 -0.0275128 -0.129486
0.110758 -0.0238069 -0.122783
0.160619 -0.0561221 -0.148399
0.182914 -0.0573907 -0.143346
0.0465859 -0.109011 -0.154676
0.101038 -0.0273693 -0.120069
0.0611357 -0.148125 -0.177261
0.131234 -0.0918503 -0.173894
0.163043 -0.0528736 -0.150129
0.155996 -0.0408703 -0.140189
0.149111 -0.0488959 -0.14215
0.153565 -0.052386 -0.138683
0.156633 -0.0537385 -0.144328
0.0515624 -0.117264 -0.157841
0.0491442 -0.123655 -0.163501
0.0508984 -0.125836 -0.162875
0.0968644 -0.114035 -0.133391
0.0712483 -0.149658 -0.177054
0.0844428 -0.0185349 -0.127535
0.157404 -0.05016 -0.145097
0.119135 -0.100815 -0.196695
0.100692 -0.0330964 -0.132449
0.108386 -0.0291608 -0.126949
0.134389 -0.0324336 -0.149418
0.138311 -0.0344217 -0.146866
0.172799 -0.0448981 -0.136765
0.12174 -0.125283 -0.180456
0.0463807 -0.114018 -0.153209
0.0624376 -0.152215 -0.169178
0.0592488 -0.127043 -0.160845
0.0715121 -0.158069 -0.174693
0.0623117 -0.0200465 -0.1827
0.191124 -0.00140282 -0.174569
0.0499438 -0.111509 -0.149616
0.0507503 -0.117198 -0.154339
0.0598986 -0.12215 -0.157965
0.0583799 -0.129831 -0.159838
0.0606821 -0.129627 -0.159548
0.0895362 -0.124937 -0.141583
0.0856547 -0.00177358 -0.126853
0.0682761 -0.152394 -0.175033
0.085162 -0.122389 -0.132413
0.166236 -0.0560227 -0.146874
0.11475 -0.0307517 -0.129069
0.137045 -0.0345165 -0.139897
0.112733 -0.0210615 -0.129079
0.152437 -0.0489413 -0.138703
0.107577 -0.019124 -0.121882
0.0898297 -0.129802 -0.144032
0.162885 -0.0085611 -0.170855
0.0668888 -0.135603 -0.162988
0.150936 -0.0212182 -0.16556
0.0517377 -0.110551 -0.151253
0.0585153 -0.116893 -0.152802
0.0604742 -0.122528 -0.151235
0.0622808 -0.120121 -0.155228
0.0651752 -0.132965 -0.155319
0.0727353 -0.152528 -0.168126
0.0772538 -0.15258 -0.169928
0.172816 -0.0687762 -0.14996
0.120561 -0.022731 -0.117542
0.0566664 -0.110492 -0.145813
0.156258 -0.049 -0.141608
0.0884474 -0.116998 -0.138329
0.150643 -0.0504059 -0.141851
0.0632843 -0.114898 -0.147951
0.0592767 -0.118174 -0.146683
0.0656533 -0.116376 -0.148273
0.064978 -0.12686 -0.149961
0.0731099 -0.130714 -0.154671
0.0750521 -0.133659 -0.160545
0.0819619 -0.153702 -0.170479
0.0546655 -0.0345958 -0.170101
0.10111 0.00247467 -0.155483
0.104221 -0.125399 -0.195868
0.115267 0.00128569 -0.163044
0.165567 -0.0610994 -0.146485
0.0955338 -0.0261115 -0.132985
0.0711779 -0.123023 -0.150448
0.135422 0.00174449 -0.14581
0.18864 -3.54213e-05 -0.180317
0.0565525 -0.0310172 -0.174158
0.122838 -0.0617187 -0.186107
0.0622278 -0.0112982 -0.16215
0.135394 -0.109913 -0.16663
0.0638472 -0.107665 -0.138396
0.0685332 -0.112013 -0.140787
0.068324 -0.12256 -0.144968
0.0716996 -0.127552 -0.149559
0.0775852 -0.130024 -0.157965
0.0808506 -0.130626 -0.15422
0.0826521 -0.133908 -0.159277
0.124428 -0.0403564 -0.179551
0.123379 -0.0353601 -0.135706
0.128101 -0.0799127 -0.181197
0.134951 -0.0305429 -0.143804
0.0723622 -0.122823 -0.147162
0.13702 -0.0337965 -0.144923
0.12045 -0.0698883 -0.193773
0.0879035 -0.142103 -0.169742
0.116027 -0.0259753 -0.119544
0.0746482 -0.117874 -0.142388
0.0761525 -0.120882 -0.145011
0.0827907 -0.126632 -0.146212
0.0834463 -0.12861 -0.147615
0.134448 -0.000821789 -0.148853
0.0627563 -0.0153593 -0.182439
0.0816124 -0.1342 -0.153989
0.0825571 -0.132022 -0.1571
0.0865307 -0.14108 -0.154168
0.0933317 -0.1353 -0.15998
0.0851844 -0.00702993 -0.126066
0.0935844 -0.00859303 -0.180521
0.173841 -0.0576577 -0.155224
0.0588149 -0.02006 -0.173679
0.0776892 -0.11765 -0.133135
0.0807971 -0.123148 -0.139527
0.082524 -0.124304 -0.142877
0.0847451 -0.131262 -0.14387
0.0889572 -0.132488 -0.147787
0.0901082 -0.133584 -0.153855
0.130244 -0.0865934 -0.184093
0.147252 -0.0104678 -0.172515
0.132009 -0.0123954 -0.163262
0.123112 -0.0581465 -0.180746
0.102007 -0.00139011 -0.167763
0.180606 -0.0641917 -0.154334
0.159802 -0.0566523 -0.148848
0.169211 -0.0675873 -0.14914
0.176846 -0.0685387 -0.16069
0.132726 -0.00160681 -0.151358
0.0598993 -0.114344 -0.209098
0.0623177 -0.117647 -0.213558
0.060221 -0.115794 -0.217226
0.061248 -0.113824 -0.219335
0.0384104 -0.121457 -0.176627
0.0582309 -0.137653 -0.199484
0.062724 -0.136671 -0.195486
0.0650694 -0.118934 -0.207043
0.066856 -0.113303 -0.22035
0.0689172 -0.109385 -0.220438
0.123984 -0.106091 -0.189436
0.0599979 -0.140906 -0.196097
0.0612694 -0.139517 -0.201259
0.0659709 -0.135447 -0.200102
0.12862 -0.0350125 -0.150111
0.0679579 -0.116496 -0.208164
0.0694682 -0.117333 -0.215523
0.0746516 -0.113179 -0.216733
0.0860136 -0.0009275 -0.133527
0.127083 -0.0542664 -0.190327
0.0608969 -0.146545 -0.186178
0.0675577 -0.150846 -0.19293
0.0675687 -0.145589 -0.193241
0.0649448 -0.141364 -0.198228
0.121972 -0.114594 -0.185011
0.066962 -0.121603 -0.207191
0.108487 0.00523083 -0.159773
0.177461 -0.0115352 -0.17922
0.0870117 -0.0119768 -0.145016
0.0644194 -0.150174 -0.186716
0.0674206 -0.146541 -0.196495
0.129801 -0.0524847 -0.177391
0.0697478 -0.124215 -0.212227
0.117098 -0.0690617 -0.205511
0.163656 -0.0398098 -0.148402
0.164112 -0.00753995 -0.181405
0.0734772 -0.141522 -0.205809
0.0704605 -0.120598 -0.209223
0.078975 -0.11687 -0.218507
0.062938 -0.0619209 -0.23248
0.0542578 -0.02683 -0.171187
0.150839 -0.00273524 -0.164991
0.12948 0.00292527 -0.156612
0.0638362 -0.152079 -0.181151
0.072771 -0.119357 -0.213502
0.0774471 -0.116965 -0.214341
0.0904406 -0.141964 -0.186231
0.0839938 -0.148424 -0.193764
0.0530348 -0.0411493 -0.160875
0.17193 -0.0105789 -0.191227
0.128641 -0.0327459 -0.153378
0.115831 -0.0522961 -0.189418
0.169128 -0.0105539 -0.186669
0.14277 -0.0415752 -0.150344
0.0661316 -0.150269 -0.182783
0.0722463 -0.150878 -0.185006
0.076026 -0.151374 -0.195815
0.0741091 -0.147378 -0.200415
0.0758805 -0.141356 -0.203108
0.073758 -0.129689 -0.206666
0.136738 -0.0876149 -0.177169
0.1179 -0.074348 -0.191024
0.183873 -0.0142415 -0.184562
0.0764841 -0.153098 -0.192925
0.0802435 -0.128928 -0.202231
0.0789699 -0.12296 -0.209683
0.0759497 -0.121884 -0.215993
0.133046 -0.073359 -0.177122
0.128286 -0.0701343 -0.176924
0.141318 -0.0222698 -0.154641
0.134294 -0.112797 -0.165
0.0586708 -0.0565205 -0.230434
0.0771964 -0.127175 -0.206277
0.125875 -0.116205 -0.173703
0.128428 -0.059764 -0.169569
0.126779 -0.0648918 -0.173743
0.0700317 -0.0867972 -0.23056
0.121141 -0.0342277 -0.18149
0.133149 -0.10621 -0.16084
0.0446817 -0.0270522 -0.210898
0.13055 -0.0825985 -0.182001
0.0846795 -0.123111 -0.205975
0.081578 -0.120369 -0.215214
0.130188 -0.0707266 -0.169407
0.125481 -0.111744 -0.183584
0.0916766 -0.138309 -0.185598
0.120526 -0.0830138 -0.189298
0.0606172 -0.0204184 -0.157231
0.0719164 -0.154154 -0.182128
0.0796622 -0.152663 -0.188093
0.0811292 -0.149721 -0.194001
0.12813 -0.0714511 -0.165799
0.129543 -0.105855 -0.178471
0.0819195 -0.128346 -0.198131
0.109355 -0.114843 -0.203396
0.122714 -0.05065 -0.18036
0.0660034 -0.0122166 -0.167996
0.065944 -0.0746075 -0.226374
0.0866504 -0.133323 -0.198769
0.0865216 -0.12764 -0.204118
0.0844763 -0.11733 -0.215564
0.116828 -0.0629382 -0.202839
0.0210314 -0.0763618 -0.168161
0.119966 -0.03958 -0.188653
0.0895894 -0.11576 -0.21564
0.12035 -0.0965868 -0.195501
0.131647 -0.0652177 -0.16464
0.100695 -0.0222551 -0.199583
0.0888781 -0.00327163 -0.177577
0.097464 0.00142279 -0.148137
0.116499 0.00429829 -0.151424
0.0797494 -0.137222 -0.198092
0.087977 -0.118752 -0.207313
0.119391 -0.117227 -0.194543
0.187324 -0.0082312 -0.18448
0.131675 -0.0961648 -0.175574
0.05724 -0.0265527 -0.162811
0.0792906 -0.155622 -0.177663
0.0800904 -0.153412 -0.180165
0.0812784 -0.152072 -0.186362
0.103761 -0.0108936 -0.18169
0.136398 -0.0258681 -0.157499
0.0910706 -0.124713 -0.208305
0.0902685 -0.120769 -0.205578
0.133483 -0.103615 -0.163628
0.121704 -0.0425188 -0.181166
0.0851889 -0.140171 -0.188728
0.022679 -0.0397286 -0.169278
0.0631263 -0.0249326 -0.18093
0.138005 -0.0281554 -0.156926
0.0892561 -0.134188 -0.192206
0.0909561 -0.131829 -0.198037
0.0885585 -0.144532 -0.191738
0.0653626 -0.0172755 -0.166028
0.129769 -5.63512e-05 -0.148563
0.0958427 -0.122351 -0.207155
0.0933319 -0.119894 -0.208965
0.11339 -0.121549 -0.191161
0.1357 -0.00775538 -0.152716
0.12842 -0.0964315 -0.180587
0.133565 -0.0813464 -0.166063
0.028408 -0.0653927 -0.164445
0.113045 -0.106409 -0.199182
0.0899618 -0.15101 -0.171953
0.0856319 -0.149287 -0.177373
0.0946524 -0.125018 -0.199238
0.192236 -0.0155913 -0.188381
0.166845 -0.00693194 -0.187128
0.117855 0.00264749 -0.147657
0.15419 -0.0123907 -0.17634
0.0582281 -0.0262131 -0.169401
0.153313 -0.0048634 -0.167368
0.094965 -0.133489 -0.187208
0.0917174 -0.131216 -0.189421
0.0973281 -0.124922 -0.199353
0.128897 -0.0506092 -0.168444
0.0940252 -0.132746 -0.191409
0.0954224 -0.130218 -0.194146
0.0977494 -0.125274 -0.203968
0.102484 -0.119191 -0.208639
0.11981 -0.0800946 -0.19292
0.0682804 -0.0628896 -0.22734
0.134578 -0.101624 -0.170057
0.0814185 -0.014952 -0.133447
0.158053 -0.00487654 -0.172629
0.118457 -0.10552 -0.201812
0.101569 0.00690345 -0.126457
0.0947638 -0.138432 -0.184713
0.054503 -0.042718 -0.186437
0.126124 -0.0496321 -0.17192
0.095286 -0.135894 -0.175663
0.0993141 -0.137262 -0.185378
0.101213 -0.132441 -0.194489
0.100309 -0.126347 -0.195283
0.100854 -0.124471 -0.195283
0.102574 -0.123201 -0.202009
0.102329 -0.119297 -0.204749
0.0526137 -0.0333664 -0.158037
0.120018 -0.0821623 -0.195643
0.11388 -0.0498988 -0.19032
0.157489 -0.00818235 -0.178955
0.182743 -0.0492381 -0.145287
0.121265 -0.0919516 -0.197497
0.119249 0.00523629 -0.131154
0.0951007 -0.00426584 -0.171971
0.13512 -0.0832232 -0.166289
0.170485 -0.0152658 -0.168084
0.0924609 -0.13661 -0.169596
0.0963962 -0.135135 -0.170694
0.0960726 -0.136728 -0.178212
0.110767 -0.119835 -0.193689
0.14011 -0.0101171 -0.159423
0.067017 -0.0560873 -0.221633
0.147475 -0.00554989 -0.161917
0.193448 -0.0101719 -0.176918
0.192331 -0.00671152 -0.177793
0.188393 0.000896611 -0.17515
0.0784286 -0.0768449 -0.12805
0.186178 0.00188979 -0.176952
0.137433 0.00320353 -0.141303
0.134318 0.0042634 -0.144176
0.0987562 -0.0047495 -0.177531
0.183136 -0.00587283 -0.171982
0.180191 -0.0105736 -0.176518
0.101719 0.000715195 -0.157969
0.125372 -0.121146 -0.164384
0.126219 0.00424539 -0.137943
0.0914259 -0.146225 -0.176483
0.122643 -0.124281 -0.16428
0.128891 -0.120407 -0.160707
0.150486 -0.0202172 -0.139052
0.12942 -0.1139 -0.156879
0.165568 -0.00966142 -0.181635
0.0897989 -0.144731 -0.176732
0.0887236 -0.143001 -0.178201
0.134566 -0.111343 -0.157858
0.17427 -0.00987982 -0.163921
0.172963 -0.00374418 -0.166987
0.147995 -0.00528317 -0.151645
0.0884706 -0.146671 -0.171779
0.121085 -0.122952 -0.157233
0.13122 -0.107133 -0.154986
0.122166 -0.0369943 -0.142843
0.174694 -0.00123904 -0.165192
0.123072 -0.115543 -0.154469
0.135332 -0.0949652 -0.158355
0.122083 0.0134486 -0.136801
0.127878 -0.113579 -0.152661
0.13128 -0.097123 -0.154491
0.0823776 -0.00504277 -0.155977
0.166625 -0.0129298 -0.165223
0.170791 -0.000849742 -0.164523
0.121695 -0.107816 -0.196979
0.130297 -0.11186 -0.150599
0.135937 -0.0928897 -0.152447
0.173524 -0.00427035 -0.161134
0.166493 -0.00335086 -0.161318
0.0833517 -0.145462 -0.167599
0.13009 -0.105816 -0.150028
0.0996118 -0.01242 -0.179368
0.0759021 -0.00563338 -0.158547
0.118573 -0.12358 -0.149744
0.123027 -0.119004 -0.152318
0.130501 -0.0859642 -0.151648
0.0648186 -0.0662497 -0.138282
0.164042 -0.0109435 -0.154049
0.137233 0.001456 -0.143106
0.0370678 -0.0348251 -0.19731
0.035171 -0.0379594 -0.193286
0.0322838 -0.0369515 -0.184148
0.0397641 -0.0376578 -0.182132
0.0289972 -0.0337195 -0.180109
0.0262146 -0.0362397 -0.1746
0.0767591 -0.00405369 -0.153577
0.120788 -0.0608243 -0.190394
0.0396312 -0.0295585 -0.196807
0.0440591 -0.0302412 -0.196513
0.0362445 -0.0326364 -0.196254
0.0659673 -0.0174319 -0.151843
0.0645763 -0.0135709 -0.157874
0.0475755 -0.02755 -0.202423
0.032982 -0.0356435 -0.19021
0.0327244 -0.0341797 -0.173932
0.0283631 -0.037544 -0.166191
0.0653651 -0.0170762 -0.156088
0.0981375 -0.00296887 -0.114789
0.076014 -0.00487406 -0.151526
0.114464 0.00129165 -0.116362
0.126407 -0.0562565 -0.17375
0.0358694 -0.0283783 -0.194618
0.0423236 -0.0357554 -0.192447
0.039881 -0.0365257 -0.187666
0.107042 0.00264182 -0.120084
0.0310493 -0.0612492 -0.168334
0.0566551 -0.0686878 -0.143065
0.127429 -0.0947462 -0.180544
0.0314633 -0.033269 -0.170968
0.0966587 -0.000713181 -0.122678
0.127643 -0.101104 -0.190294
0.0658658 -0.012534 -0.149955
0.0352968 -0.0329478 -0.174613
0.121423 -0.00666153 -0.167425
0.034829 -0.0612691 -0.16329
0.0268774 -0.0657752 -0.162077
0.0665892 -0.00970639 -0.153055
0.0445921 -0.0309177 -0.202253
0.0479489 -0.0302182 -0.199617
0.048739 -0.0307378 -0.193381
0.0440239 -0.0301344 -0.193223
0.0443846 -0.0409147 -0.193075
0.100403 0.000577867 -0.118801
0.0818471 -0.00740431 -0.150953
0.0681041 -0.00812236 -0.162431
0.0768464 -0.0683748 -0.132091
0.113858 0.00257767 -0.12023
0.0467063 -0.038098 -0.196009
0.0475019 -0.0448433 -0.189345
0.07828 -0.00551729 -0.163015
0.157265 -0.0296774 -0.136699
0.0403299 -0.0393295 -0.171623
0.054202 -0.0449365 -0.193712
0.120494 -0.000810843 -0.123476
0.0386212 -0.0677808 -0.162972
0.0802132 -0.012242 -0.122564
0.0743081 -0.0726352 -0.134109
0.0508684 -0.0485937 -0.187294
0.115161 -0.0983552 -0.203067
0.0448208 -0.0761575 -0.162324
0.0506703 -0.0459414 -0.182228
0.0471835 -0.0445231 -0.176806
0.048551 -0.0468491 -0.167936
0.046996 -0.0474215 -0.166853
0.0516619 -0.072129 -0.158675
0.1184 -0.010024 -0.168218
0.046346 -0.0753376 -0.149524
0.115923 -0.0573209 -0.194947
0.0549281 -0.0733894 -0.159413
0.0551888 -0.0752914 -0.150062
0.050681 -0.0795297 -0.149044
0.174427 -0.0498929 -0.152719
0.162703 -0.0530718 -0.156278
0.147465 -0.0234585 -0.14785
0.128916 -0.0233714 -0.165582
0.0548386 -0.0310477 -0.157067
0.112143 -0.0697993 -0.212177
0.112946 -0.0271221 -0.18695
0.134576 -0.0264832 -0.150244
0.0588299 -0.0689701 -0.152823
0.0511787 -0.0741092 -0.149769
0.125438 -0.0327915 -0.162356
0.124417 -0.00474928 -0.161346
0.119304 -0.0286152 -0.175462
0.121659 -0.044756 -0.182738
0.177997 -0.0587912 -0.148581
0.0576934 -0.0391108 -0.187097
0.0601009 -0.0551891 -0.230507
0.057539 -0.0561177 -0.225564
0.0522075 -0.0530785 -0.219748
0.0605801 -0.0535316 -0.216658
0.0664782 -0.0888086 -0.224889
0.121972 -0.0869471 -0.190836
0.0493537 -0.0275444 -0.208313
0.109368 0.00417004 -0.13433
0.0592147 -0.052777 -0.227427
0.187089 -0.00859247 -0.183306
0.102446 0.000123498 -0.132665
0.0541636 -0.0352214 -0.208442
0.160777 -0.0100124 -0.179217
0.0676313 -0.0562608 -0.223075
0.0524293 -0.0312125 -0.202962
0.0380303 -0.0403037 -0.181359
0.122509 0.00105058 -0.162116
0.0565682 -0.0476921 -0.213329
0.0424406 -0.0391586 -0.186231
0.0655266 -0.0552463 -0.2207
0.0636527 -0.0559777 -0.211931
0.0637468 -0.0523888 -0.212131
0.0509942 -0.0320894 -0.198458
0.0453483 -0.0463468 -0.184585
0.0422119 -0.0433901 -0.178591
0.0351096 -0.0358856 -0.179747
0.0735833 -0.0619209 -0.225373
0.0708555 -0.059856 -0.226043
0.1252 -0.0546751 -0.178857
0.0582022 -0.0397443 -0.204885
0.121968 0.00623534 -0.133279
0.0625035 -0.0566006 -0.215077
0.136207 -0.0871699 -0.174547
0.130088 -0.100653 -0.179635
0.0590269 -0.0437359 -0.208184
0.0523879 -0.0367159 -0.20108
0.14746 -0.00598812 -0.170573
0.178246 -0.00401883 -0.174439
0.0578156 -0.043981 -0.20028
0.0451414 -0.0413101 -0.177091
0.129238 -0.0682857 -0.179787
0.0704889 -0.063406 -0.216075
0.116275 -0.106669 -0.199642
0.118418 -0.100919 -0.192329
0.123119 -0.105986 -0.182964
0.0714782 -0.0661004 -0.209188
0.0668575 -0.0597564 -0.212411
0.0683901 -0.0547717 -0.207981
0.127113 -0.0747107 -0.182616
0.0627377 -0.0450622 -0.209532
0.0646222 -0.0388074 -0.200751
0.0732062 -0.0663971 -0.215861
0.073846 -0.0648941 -0.216074
0.122955 -0.118949 -0.178217
0.0804007 -0.0673228 -0.22115
0.118823 -0.0248052 -0.17386
0.127922 -0.0729474 -0.184411
0.124288 -0.0337322 -0.175871
0.0695106 -0.0384682 -0.20606
0.0685397 -0.0371422 -0.200738
0.0621237 -0.0379973 -0.196107
0.129768 -0.106284 -0.171878
0.127224 -0.0648726 -0.182434
0.0816577 -0.0664709 -0.222752
0.0823092 -0.0624087 -0.220116
0.0780622 -0.0602858 -0.218184
0.0763742 -0.0591906 -0.208732
0.135283 -0.0900879 -0.16969
0.0893022 -0.0682938 -0.222431
0.0788898 -0.0631003 -0.209258
0.0674976 -0.0266343 -0.198707
0.0721265 -0.0223254 -0.194029
0.0603111 -0.024507 -0.190411
0.0610782 -0.0180986 -0.172326
0.185009 -0.00975642 -0.191544
0.0940451 -0.0715439 -0.221532
0.0925099 -0.0652093 -0.219419
0.0906196 -0.0596378 -0.215037
0.0845741 -0.0627081 -0.208861
0.0858698 -0.0608336 -0.208158
0.0833102 -0.0575188 -0.206324
0.0688823 -0.0742628 -0.223878
0.0668412 -0.0202936 -0.183569
0.13167 -0.0974635 -0.17059
0.0689294 -0.0164679 -0.184714
0.0657296 -0.0174943 -0.191885
0.0901311 -0.0632878 -0.212249
0.0731673 -0.0189988 -0.195015
0.0755531 -0.0201471 -0.191583
0.0672609 -0.010057 -0.180897
0.129396 0.00957514 -0.134424
0.0963918 -0.0667264 -0.218256
0.0909745 -0.0608221 -0.212937
0.0898219 -0.0649503 -0.209517
0.0871128 -0.0566728 -0.208164
0.0852455 -0.053388 -0.201638
0.0535334 -0.0408365 -0.215751
0.0792356 -0.0224537 -0.19446
0.0700731 -0.0105368 -0.187762
0.135487 -0.0997459 -0.160534
0.0786577 -0.0162852 -0.19407
0.076798 -0.00737695 -0.18331
0.119793 0.00571471 -0.143903
0.120423 -0.0939635 -0.19765
0.0812566 -0.0136903 -0.193116
0.0791566 -0.0173972 -0.191248
0.0788993 -0.0113449 -0.190681
0.0738537 -0.00872197 -0.178317
0.130138 -0.0951389 -0.181438
0.103061 -0.0582007 -0.213392
0.0990911 -0.0557533 -0.209073
0.0950872 -0.0535392 -0.203703
0.117988 -0.112654 -0.201272
0.1028 -0.0581238 -0.211439
0.0851905 -0.0257467 -0.195645
0.0761775 -0.00782878 -0.175299
0.0706583 -0.00713268 -0.169264
0.114586 -0.0712117 -0.196003
0.125941 -0.0643244 -0.179734
0.085643 -0.00951147 -0.189725
0.0865351 -0.00788178 -0.185443
0.0775713 -0.00440147 -0.187456
0.076699 -0.00399832 -0.161466
0.0664259 -0.0097327 -0.166625
0.0882276 -0.146295 -0.188523
0.10664 -0.0536477 -0.203686
0.0995556 -0.0540171 -0.200202
0.0835635 -0.00715762 -0.178893
0.109091 -0.0576487 -0.211446
0.129615 0.000106604 -0.147137
0.0906606 -0.0108122 -0.18618
0.0932007 -0.0104531 -0.192502
0.086785 -0.00915861 -0.181367
0.086631 -0.00435529 -0.183711
0.0830471 -0.00326979 -0.177786
0.0787175 -0.00436922 -0.1699
0.0778599 -0.00477143 -0.173175
0.0703086 -0.0676648 -0.220973
0.124899 -0.0730292 -0.19291
0.118709 -0.0672263 -0.192429
0.110622 -0.111974 -0.204025
0.122633 -0.0965911 -0.202235
0.117941 -0.0702388 -0.21551
0.128444 -0.0763711 -0.179101
0.0709841 -0.0812978 -0.231795
0.0607906 -0.0631695 -0.232827
0.0620929 -0.0677411 -0.232655
0.11991 -0.0802104 -0.196972
0.133996 -0.0741198 -0.174684
0.113955 -0.12515 -0.182453
0.0580492 -0.0407014 -0.208268
0.11633 -0.0702631 -0.195037
0.0507569 -0.0374826 -0.210663
0.10731 -0.0367098 -0.191546
0.127042 -0.0710452 -0.162023
0.111351 -0.116852 -0.190926
0.0939304 -0.11403 -0.214719
0.120597 -0.0700666 -0.198774
0.0814649 -0.140198 -0.195958
0.112496 -0.0813502 -0.215045
0.0523694 -0.0326278 -0.212337
0.0696494 -0.105682 -0.223446
0.106164 -0.11701 -0.207943
0.114951 -0.0631996 -0.210182
0.0497201 -0.0441188 -0.217885
0.0990003 -0.115616 -0.216136
0.125451 -0.0309387 -0.156862
0.0658993 -0.0788714 -0.230045
0.129673 -0.069356 -0.15643
0.1272 -0.041256 -0.161056
0.136938 -0.0746884 -0.160341
0.133416 -0.0766692 -0.158994
0.130818 -0.0804555 -0.15811
0.136098 -0.0859821 -0.158689
0.133537 -0.0930115 -0.158345
0.127859 -0.0263198 -0.163508
0.128666 -0.0375225 -0.16136
0.133744 -0.0795611 -0.16181
0.131195 -0.0874215 -0.161022
0.136008 -0.0929554 -0.160242
0.127862 -0.0307054 -0.167579
0.0655579 -0.0993405 -0.220593
0.0641824 -0.0914618 -0.226505
0.0699371 -0.108186 -0.223312
0.0703703 -0.0998587 -0.226682
0.0699966 -0.0945921 -0.222979
0.0699019 -0.0956147 -0.230239
0.113787 -0.0288207 -0.189173
0.147791 -0.031315 -0.152658
0.0451891 -0.0339132 -0.211852
0.108564 -0.023302 -0.18578
0.106959 -0.0191898 -0.187113
0.156133 -0.0494108 -0.148844
0.0600377 -0.131632 -0.205534
0.0622023 -0.129085 -0.208277
0.0750723 -0.108374 -0.221692
0.071744 -0.104269 -0.221686
0.0770576 -0.0979622 -0.222289
0.0744885 -0.0930937 -0.224661
0.0781316 -0.0852631 -0.225237
0.07423 -0.0774414 -0.227105
0.0764813 -0.0724623 -0.225206
0.0686758 -0.130786 -0.204089
0.158492 -0.0495114 -0.152389
0.0711956 -0.134882 -0.203396
0.0818525 -0.107655 -0.222507
0.0755448 -0.101476 -0.221209
0.0607808 -0.0211542 -0.172942
0.0844052 -0.102916 -0.219765
0.0858954 -0.0981021 -0.220068
0.0823096 -0.0945105 -0.22376
0.0824877 -0.0892906 -0.220673
0.0849452 -0.0853108 -0.22486
0.0859357 -0.0817143 -0.226398
0.0778936 -0.0772233 -0.228019
0.0792439 -0.0751567 -0.225183
0.076893 -0.132016 -0.204563
0.0838098 -0.108571 -0.220262
0.0741515 -0.137513 -0.207651
0.0852226 -0.111201 -0.219819
0.081675 -0.0760891 -0.222525
0.0688056 -0.0610549 -0.208932
0.0671281 -0.048304 -0.206414
0.167089 -0.05833 -0.154974
0.0776808 -0.142205 -0.201226
0.0904187 -0.102218 -0.224588
0.0900609 -0.0937386 -0.223848
0.0897829 -0.0901646 -0.219324
0.0903629 -0.0837987 -0.22691
0.0905468 -0.0779968 -0.218691
0.0885332 -0.0703853 -0.222306
0.0878029 -0.10792 -0.215694
0.0908414 -0.103659 -0.218817
0.0914381 -0.0985618 -0.221885
0.09185 -0.0929731 -0.222863
0.0759696 -0.0640934 -0.206171
0.0740714 -0.0549966 -0.204275
0.0726426 -0.046378 -0.202522
0.0904221 -0.0832695 -0.223504
0.07237 -0.0535163 -0.205848
0.0933887 -0.106625 -0.213008
0.0960998 -0.102891 -0.220192
0.0976185 -0.0943678 -0.21814
0.0952797 -0.0876606 -0.222462
0.0986278 -0.0768144 -0.221744
0.0775963 -0.0572581 -0.206494
0.0771738 -0.0425587 -0.199827
0.0776191 -0.0494027 -0.206216
0.0795874 -0.0476851 -0.202219
0.0700475 -0.0344984 -0.198357
0.116171 -0.00799428 -0.169682
0.0973871 -0.0747671 -0.223384
0.0714653 -0.0373304 -0.198805
0.0734132 -0.0343612 -0.197162
0.0994378 -0.118447 -0.205197
0.101585 -0.108336 -0.21091
0.102712 -0.107812 -0.214735
0.100083 -0.103644 -0.2182
0.102872 -0.100867 -0.211752
0.105064 -0.0906728 -0.219106
0.102226 -0.0868297 -0.218784
0.104495 -0.0809838 -0.222689
0.101285 -0.0806295 -0.222128
0.100348 -0.073275 -0.219185
0.102976 -0.0700281 -0.2216
0.0991521 -0.0682363 -0.219408
0.0782341 -0.0339254 -0.198246
0.0855998 -0.0533173 -0.204441
0.0808042 -0.0489346 -0.201301
0.0813117 -0.0403149 -0.205111
0.0791175 -0.031342 -0.197936
0.0789326 -0.0285526 -0.195731
0.102934 -0.0657623 -0.216137
0.0799752 -0.0328812 -0.200216
0.104899 -0.115033 -0.206533
0.106594 -0.107154 -0.208542
0.104992 -0.102481 -0.210582
0.106999 -0.0981296 -0.211495
0.111656 -0.0947097 -0.212629
0.106773 -0.0886835 -0.214513
0.105363 -0.0838623 -0.216972
0.103273 -0.0822122 -0.218231
0.107063 -0.0715677 -0.219961
0.106754 -0.0686678 -0.21779
0.10461 -0.0645074 -0.217688
0.0947818 -0.0535651 -0.199817
0.0930644 -0.0523486 -0.199549
0.0948127 -0.0491231 -0.199182
0.0896353 -0.0483335 -0.203751
0.0887349 -0.0390476 -0.202596
0.0837244 -0.0334512 -0.202847
0.0869071 -0.0280216 -0.198722
0.079917 -0.0223963 -0.196474
0.0188757 -0.0382739 -0.174869
0.094119 -0.0377311 -0.203326
0.0907793 -0.0322786 -0.202267
0.112063 -0.101665 -0.208744
0.110961 -0.0994363 -0.20919
0.113771 -0.0913673 -0.212341
0.110897 -0.0884557 -0.213504
0.113559 -0.0869959 -0.215417
0.113596 -0.0762439 -0.211956
0.111137 -0.0703384 -0.217577
0.11225 -0.0632475 -0.214575
0.084585 -0.0182898 -0.196348
0.113392 -0.103528 -0.209716
0.0977979 -0.0495109 -0.199873
0.0950882 -0.0467208 -0.201611
0.0979761 -0.039786 -0.199874
0.0961006 -0.0324218 -0.197611
0.0989147 -0.0253861 -0.197341
0.091304 -0.0238562 -0.202399
0.0926711 -0.0230213 -0.196214
0.115591 -0.0823608 -0.208441
0.114295 -0.0613376 -0.214327
0.110876 -0.102113 -0.204408
0.106266 -0.0529361 -0.199843
0.065262 -0.0884965 -0.222028
0.0623483 -0.071104 -0.225869
0.0623736 -0.0825619 -0.224892
0.0604301 -0.0694297 -0.225278
0.0631935 -0.0993361 -0.213667
0.0582928 -0.106874 -0.21716
0.0582918 -0.0589873 -0.225477
0.0560552 -0.063156 -0.225412
0.0597695 -0.0945256 -0.214531
0.0616183 -0.0836942 -0.220619
0.0608905 -0.0834856 -0.221404
0.0610708 -0.0864383 -0.219806
0.0612505 -0.0910226 -0.216725
0.0605813 -0.099632 -0.215629
0.062165 -0.112872 -0.214757
0.0601622 -0.0690614 -0.222238
0.0576949 -0.0727389 -0.220298
0.0613967 -0.0785831 -0.221549
0.0621514 -0.0782022 -0.216223
0.0628617 -0.0789157 -0.217679
0.0637329 -0.106618 -0.217899
0.0550999 -0.103916 -0.212198
0.0623544 -0.101488 -0.211988
0.0539309 -0.0560502 -0.22105
