ply
format ascii 1.0
comment Created by Open3D
element vertex 1862
property double x
property double y
property double z
end_header
1.84298 -3.68969 -15.935
-4.68503 28.8636 -9.38693
-15.0288 9.865 -16.3215
1.74221 -3.61032 -20.5025
-14.5188 15.9267 -2.65693
-1.31979 -7.47638 -16.7372
1.41767 4.61141 15.6707
-3.88106 -5.3063 13.0725
-10.7152 11.0422 -14.6305
-5.73092 13.4669 -5.30739
-11.995 -6.23147 13.6873
-5.80046 23.643 -3.19284
-3.82873 21.8289 2.55419
-8.78383 19.1336 5.42247
-4.7437 -9.16235 -15.5604
-2.15473 1.2615 6.03739
-3.62923 -0.438191 14.5865
-5.70513 25.2683 -4.9446
-4.66581 -3.54266 14.5251
-8.12263 4.64024 -23.3224
-2.83314 22.0741 2.44347
-3.60273 -18.2503 -0.796053
-0.156241 -6.51137 -7.384
-7.54315 8.89196 -8.1377
-1.285 -15.5723 -5.39312
-12.9504 6.93221 -16.4533
3.04971 -10.5022 -6.21024
-2.98125 -5.00377 -15.604
-2.72272 0.446901 -14.6472
-1.82005 24.618 -2.32315
0.698057 9.15425 -16.4755
-5.88494 13.5181 -5.35938
-1.91338 5.46703 0.280619
-1.50458 -9.7911 7.3734
-6.85094 -2.30558 13.7373
3.06692 -12.286 -0.272277
-9.88797 -3.74706 15.511
-1.48226 4.86964 13.5234
-2.06264 -5.05541 -18.5859
-4.68495 28.3273 -8.85872
0.218699 -3.15219 13.4313
-8.05221 -12.6591 -7.02584
-0.578521 2.38272 16.273
1.83121 0.0241054 -0.895945
-8.78977 21.193 0.004895
-5.09391 23.4736 -4.15692
-4.28194 11.2755 18.993
2.62535 -5.63383 7.44149
-0.567099 20.6262 5.06735
-7.50213 8.21193 -8.53442
2.32517 -3.01146 -0.711637
3.45273 -13.0328 2.73633
1.89461 0.21192 -0.680824
-14.1789 10.966 -5.68406
-1.96508 7.9119 17.4476
2.89073 -8.47886 -12.9973
0.529822 19.2457 -5.31804
-3.95351 5.42599 18.5859
-1.39626 20.3961 5.06245
-9.21762 9.71068 -11.2936
-3.51288 7.15239 20.0587
-4.85859 21.8897 2.04751
-5.11465 -8.57815 -16.3161
-4.63099 0.213693 15.3385
-0.553201 5.57558 0.79407
-12.9188 -8.81803 -3.97562
-15.4926 -1.91415 14.2863
1.51978 -12.3456 -9.48375
-4.58015 24.8223 -5.52781
1.80203 0.996574 10.6472
-1.41408 -7.77928 -11.8302
1.32985 5.21764 0.715637
-13.8652 -8.19574 11.4043
-1.33969 10.1362 -16.2376
-15.5713 9.32072 -15.5544
-2.52022 16.0175 6.29712
2.8181 -10.4254 3.24346
-8.90403 -14.2414 5.0973
-6.56017 20.349 4.3518
-10.0486 2.58788 18.128
-4.93785 23.4783 -3.63799
-8.02085 26.0669 -4.23341
-1.42493 10.4119 -7.75784
3.44043 -13.7372 -6.69179
-12.5175 7.35007 -8.54826
2.9087 -10.2959 -12.0941
1.1654 -13.0458 4.80084
0.857671 -6.36427 -16.6973
-0.323542 18.2457 4.53627
-10.0421 1.48276 17.4015
2.55628 -6.05545 -13.7128
-15.8106 -0.647422 14.6321
-3.34921 -9.4125 7.52895
-4.3549 10.9186 16.9053
1.77785 -9.35922 -0.892073
-2.11465 -1.08909 -20.559
-0.525676 -13.4985 4.74952
-0.27929 19.1526 5.77945
2.20205 -2.32363 -3.51027
0.0732604 -13.4463 -8.1141
-13.0869 -6.38295 13.061
-1.92273 16.8935 6.21416
-3.5999 21.4611 1.1208
0.524337 10.2949 -11.6608
2.85692 -8.25743 9.96277
0.974763 5.047 -21.0492
-1.59719 22.0983 1.63355
-4.75308 7.5348 -17.3664
0.921955 8.80209 -0.43175
-7.22706 16.7104 9.78083
1.29641 3.73871 -5.84316
2.07902 0.0761768 14.3873
2.12907 -1.328 11.5137
-7.29934 20.0263 4.62992
-5.1407 1.59355 17.2873
-3.37739 1.16472 -14.9307
-2.34658 9.54607 21.7807
-6.38842 22.4456 1.3254
-5.37004 21.6082 1.16367
-13.8171 9.03697 -15.288
2.34129 -10.2204 -3.28862
1.01842 6.44065 -11.9367
-8.51463 18.3011 7.10771
-6.91677 -8.28585 9.51188
-10.9903 9.58549 -5.42947
1.74893 2.51779 15.3744
-5.42435 14.9405 8.26276
2.77547 -7.16941 -7.02965
0.916949 -13.0947 -5.96859
-0.784922 -7.66394 -11.7975
-3.72689 24.5122 -6.82311
-3.51105 -3.3388 -19.1839
0.123514 14.2451 0.205326
-5.78908 -1.39386 -27.3949
-14.9412 -3.08063 7.48233
-5.28998 11.4026 14.4437
-1.22925 -13.3853 -1.45449
-7.27819 -12.2666 7.60278
-4.3066 17.2818 5.65393
1.13481 -12.996 -5.97509
-5.26128 20.6068 4.27325
-5.51221 25.2527 -4.10644
-12.4755 6.15145 -18.9462
2.56832 -11.5471 -3.36603
-1.76034 5.70621 18.4835
-2.4142 8.27436 19.2844
-11.4873 7.86605 -9.07162
0.621832 7.69541 -21.2755
-6.10561 6.82808 -17.7349
-3.39722 -3.45563 -15.6729
0.272475 -3.12337 -20.2648
-2.91305 -10.222 7.40724
-3.38891 11.2313 -12.9185
-8.25568 21.3539 1.87364
-4.99091 2.42199 17.7074
-8.74147 9.15708 -6.6745
-2.80272 14.1517 -4.38482
2.21154 -3.2907 -2.09878
-7.13866 -5.37775 13.6052
-3.09097 4.01209 3.44474
-14.3797 -0.0486091 -16.0092
-3.65075 -4.59466 12.5432
-3.20642 22.4306 -9.45775
-1.7645 -0.274798 14.6212
-2.14788 26.8172 -4.67414
-0.293602 -7.75848 -15.7555
-11.0546 7.32361 -23.1906
-12.9424 6.92146 -16.432
0.893705 -0.819137 -19.294
-0.24825 24.7755 -0.743092
-9.74699 15.4351 -3.17522
-11.3218 11.0321 -5.35128
3.24393 -11.3542 -4.21621
-14.8604 -6.70064 12.8071
1.365 4.61417 -3.2177
-0.779564 18.3073 6.96496
-5.5265 10.6499 -12.2914
0.552899 6.35245 -24.6796
1.85402 -0.636515 -12.1268
-2.36134 22.8574 -7.56377
0.889101 8.21358 -3.07144
-14.3475 -6.66569 11.7177
-0.82847 -7.36229 -16.8214
-1.11615 14.1941 -3.81187
-1.75708 -15.4239 -5.3009
-3.37513 -3.28873 -14.5234
2.69444 -10.5666 -11.861
-7.88328 -5.19809 -18.4401
-4.24495 8.23565 -20.6406
-1.82289 -5.12577 5.61502
0.704583 -7.03509 11.1354
-11.4259 0.973243 17.398
-3.41803 -5.60439 -14.8087
1.22356 5.26912 -3.67807
-12.7387 -9.47088 -3.45687
-3.06509 8.52738 9.79625
2.06061 -4.92169 12.2079
1.60672 0.153882 -12.5626
0.0354381 23.2694 -2.71445
-2.88387 11.1449 16.8665
-6.77096 13.7981 12.2456
-16.9578 9.97138 -0.298408
3.28941 -11.4298 -6.22767
-14.1929 -4.63167 13.3171
2.22498 -2.28297 -2.22535
-3.24545 7.18888 5.8857
-0.655154 21.1961 2.53094
-0.586748 -5.45014 -19.6335
-5.00654 26.3039 -9.88512
-9.72792 -8.06635 12.1017
1.32117 -4.78752 12.762
-0.0763103 21.1742 -1.86878
-6.05245 -2.69223 -25.4152
-7.33662 10.8621 -13.0287
-3.3846 -2.30102 14.2818
-14.5863 -9.34336 10.2137
-1.3341 -6.34101 5.56343
-5.19715 25.281 -7.11846
2.96581 -9.82668 -9.93144
0.991972 -12.3739 -0.478069
-1.78847 21.7126 0.232236
-3.19184 23.0185 -8.76788
-5.18155 5.94271 -22.9848
-2.01069 13.2879 -5.75962
-8.62231 -5.79176 -14.6633
-0.799188 15.3637 -2.78209
0.0708858 -7.29679 -13.8597
-1.20242 14.8304 -3.55905
-14.4316 0.138553 17.1625
-1.19612 21.3559 0.845098
1.82792 0.138462 -2.99018
-3.25284 -9.89544 -14.2636
-11.8014 -3.50203 -12.5985
0.368505 13.2942 3.73708
-0.0697513 1.40652 -17.3215
-1.16673 11.0908 -7.22882
-9.55095 11.5115 -14.3078
-5.05244 22.4817 -3.74669
-3.79595 6.11194 19.3828
-3.96824 -8.30604 3.92175
-3.07892 7.15261 14.4673
-11.8985 -9.75784 -5.07892
1.11076 5.71247 -6.19308
-4.73785 13.0969 7.26897
-9.82743 9.1408 -10.5167
-7.87027 17.5215 8.32287
-4.19589 -4.94064 13.4494
2.18701 -1.83556 13.9657
0.170474 15.743 3.87501
-2.83934 -14.0721 3.94367
2.62085 -6.80919 -15.9746
-3.55985 -1.70776 13.5157
-13.2927 1.83611 17.9962
-4.21054 11.2009 -13.1509
2.72734 -13.84 2.36496
2.71149 -5.55591 11.8628
-7.12726 0.32705 16.4838
2.58897 -6.65816 -8.99745
-6.36904 22.1331 0.397954
-6.61594 -1.12204 14.2389
2.23325 -6.87696 -9.96089
-0.407249 20.1879 4.86646
-0.154095 18.417 6.12417
0.832134 9.84498 4.24003
-5.65568 14.3944 11.6103
-1.77704 23.4253 -7.55767
-14.6679 9.84635 -16.468
-13.1434 -9.36415 -2.91163
-10.687 -4.73538 -11.0458
1.3207 -0.195323 -18.0302
-0.115685 10.73 -15.9869
-3.34458 8.40317 -22.7457
-14.7576 -4.7675 4.73484
-7.0614 23.8139 -2.66174
0.00146795 15.8004 2.94909
0.429637 2.4578 5.10738
-3.78541 8.93198 22.323
3.26184 -11.6898 -9.0099
-13.8743 -2.77497 -0.495156
0.211356 4.5568 2.68136
-0.709264 -14.2626 -7.22037
-6.30736 16.2626 9.02187
-14.9741 -3.89538 2.79708
-2.35194 5.50228 -23.8133
-7.54083 17.6735 5.74891
-0.119949 16.5304 -3.74144
-9.9027 -4.66216 -14.0554
-1.63086 12.4937 5.26481
-9.57488 9.29617 -7.17319
-14.25 -1.43954 -1.33651
-7.55571 19.5216 5.27226
-7.70508 11.4572 17.7819
-5.09171 17.1225 4.38999
-5.83585 17.457 6.24072
2.37795 -3.90478 -2.23162
0.745613 -4.3916 12.7533
-5.78821 11.1867 18.6229
1.53609 1.71152 -12.4564
-15.0613 9.40465 -16.0301
-0.731588 -7.96563 -15.7231
2.08443 -8.05298 10.2063
0.49151 2.1937 6.54586
-6.94808 8.43207 -8.31426
0.0225488 20.6029 -2.70994
-2.17419 -6.64659 -13.3747
-3.45464 7.24582 -17.7103
1.37527 2.78063 -6.68218
2.58613 -6.76192 1.43435
-7.39637 11.079 -14.9254
-15.0743 4.65848 2.9334
0.88059 -0.476611 8.84452
-4.46839 5.14834 19.4933
-7.39062 16.4767 10.0157
-12.3047 6.46138 -17.0799
-7.92656 16.8692 9.36359
-0.44759 20.1022 0.786609
-2.79015 22.4019 0.307546
-2.35802 19.4198 6.482
-1.07587 20.5201 -0.452724
-3.27083 25.8748 -6.78785
-3.71377 -2.94343 14.0569
-14.205 7.40115 -16.7832
-2.47017 1.9621 -25.8056
-12.0887 -2.11527 -17.5273
1.21293 4.03426 -13.153
1.25262 3.93008 -12.2945
0.745495 7.79253 -17.3286
-0.0435426 7.2162 -21.7873
-2.07529 -5.04848 -18.483
-14.3423 -1.0473 -15.8689
-12.6009 -1.67788 14.8583
0.273336 13.0076 -2.67399
-9.94939 10.993 -13.7874
-13.025 -9.37808 -0.940843
2.67063 -7.02744 -8.38788
-14.9336 -6.09048 12.1485
-4.34671 -1.94482 13.7301
2.10314 -12.0799 -3.47643
-7.68393 -12.3351 -7.14828
-4.03141 23.2191 -3.84036
1.06855 5.99069 -8.70038
-11.5261 -3.63394 -17.9319
-8.71045 -5.97876 -17.4741
-16.1468 4.90223 2.59328
-4.00492 11.1444 9.3665
-4.955 14.4157 -5.1059
-3.14324 -10.0812 7.85386
1.88178 -4.68477 -13.1242
-8.85662 -11.3144 -6.21635
-9.40669 -8.75776 10.1241
0.838269 8.29747 -8.50327
0.922103 7.68861 -6.19267
-3.54794 -11.0848 -12.383
-2.14589 17.828 8.49424
-5.08554 13.3352 13.2601
0.644017 11.3673 -1.05765
1.75995 -6.25483 3.71655
1.33167 -14.0499 2.52585
-14.4933 -3.36825 14.55
-17.3428 11.4436 -5.46537
1.13004 -12.0964 -2.87567
-3.5505 11.9863 -14.0516
-1.64375 1.05086 10.948
-13.6718 5.94773 -17.1497
-13.0972 -9.49541 -1.67463
0.547531 10.6563 -5.59941
-1.90328 16.9903 5.07421
2.27882 -2.57802 10.1867
-5.24222 14.7027 8.22428
-5.71318 14.9622 12.6346
-0.992562 1.94141 -15.6066
-7.47211 10.673 19.1295
-6.5239 17.6238 8.43885
0.825762 4.93149 -23.7808
-2.33399 26.1288 -5.18857
-8.52119 -9.50352 9.30836
-6.00279 -5.30183 -21.3268
2.4762 -5.89295 -7.64054
-0.114732 4.96731 0.465995
-7.64451 20.3906 1.14574
-12.6713 -7.18972 -3.98479
-4.87499 14.4566 -3.7433
3.0209 -10.155 -11.3426
-1.74973 -6.20192 4.65138
-9.24589 9.91183 -11.554
0.274738 -13.1545 -5.90669
-7.00573 11.4719 -14.7855
-1.61993 2.97088 2.93599
-5.03896 10.3608 14.8386
1.51037 -15.4237 4.19434
0.916953 -3.04569 -15.9985
0.854046 7.4773 -12.5787
-3.36627 6.20151 19.3953
-8.26812 -8.85306 9.21806
-3.67606 -7.75924 -13.7277
2.86208 -8.04353 7.85162
-7.69088 12.9943 15.3312
2.70386 -7.26253 -8.79586
-9.67313 -8.56462 11.7332
0.380104 13.5258 0.397467
-5.43066 10.6099 -7.10724
3.27479 -10.9585 -4.44809
-0.0556696 19.916 -2.5061
-2.59604 11.0899 17.5448
-2.1359 25.0459 -1.43662
-9.25707 21.0654 2.32832
-3.81649 15.3831 8.66013
2.21254 -2.82507 -0.86456
-8.13775 8.76065 -9.76225
-2.31265 4.2786 0.903169
-6.60564 16.4855 6.7122
-7.02375 10.3865 -12.1836
-3.45424 -2.23527 -16.653
-0.435499 -10.2786 -12.869
1.05999 6.96026 -4.17338
-15.0791 8.6449 -15.0218
-5.59311 11.6 18.3521
-7.31907 10.4593 19.4775
-1.78986 8.88213 -8.35868
2.03091 -5.75153 -11.5443
-4.72873 -16.4634 3.47869
-3.24713 -3.5427 -14.2958
-6.60009 2.5663 17.4356
-0.813929 12.1096 -6.51861
1.65898 0.958018 -4.55245
-2.84932 22.3409 -9.11012
-1.96872 25.2238 -1.3791
-13.5834 6.08335 -18.5077
-4.43506 21.7518 2.62889
-7.28131 -0.545023 -27.9206
-1.54646 11.1697 -15.6027
-2.59155 5.88817 18.3406
-5.01786 -8.82899 10.9544
2.3767 -4.11378 -5.66668
-0.444655 -7.06717 -17.2728
-12.5432 7.02529 -23.2453
-2.70745 11.1121 4.682
-2.98179 7.40182 17.7582
0.544694 11.9286 3.20359
-6.088 10.6908 16.9186
-0.168686 -12.6088 -4.56811
-14.456 -8.704 11.0375
-7.60069 5.01006 -25.019
-7.98278 -8.8605 12.1925
1.79679 1.68763 2.09913
-6.75384 15.0556 12.4497
0.862464 7.37761 -4.90483
-0.846276 -0.229283 8.62814
-0.166375 20.9231 -2.10014
1.80351 0.495138 -1.94483
1.57711 -9.36318 1.33398
-9.53249 -0.851825 14.9217
-6.43639 3.76153 18.5907
1.60513 4.06615 16.3149
2.95004 -9.25978 -8.36237
-13.2601 -10.257 8.9733
-2.51579 -2.14099 13.5011
-15.9239 -1.33277 -1.79247
-8.30325 17.5505 8.19723
1.11756 6.36238 -5.05336
1.03104 6.0881 -8.99951
-10.1663 5.91071 -18.0825
-0.0343525 -9.53178 -13.1558
-4.36376 11.3915 18.8198
-7.03114 -6.98317 -15.561
-1.05037 -15.4101 -5.44393
-3.1056 24.4727 -2.47804
-14.0658 -6.23785 12.3813
0.569202 10.1551 -7.11582
1.73604 0.448238 -11.1082
1.64246 -16.6016 0.827375
-13.0882 -9.30203 -2.02142
-4.55687 0.43915 16.3935
-1.92737 -10.1377 8.00905
-9.97979 2.96466 18.3849
-1.0989 2.31552 16.3545
0.714815 11.7403 4.85275
-5.04673 10.9736 16.3014
-0.518408 -16.0614 3.00782
-0.209642 18.9416 6.68722
-3.6079 -14.0188 3.85424
-9.48319 -2.58087 14.6219
-0.402891 17.7826 7.67296
-6.75994 -11.6468 7.01607
2.61162 -5.56305 11.3333
-5.4824 8.72358 -8.22961
3.28653 -10.9827 -4.87969
-0.498453 5.37291 -23.2314
-5.59405 11.7458 17.9451
0.839371 8.57553 -6.78651
0.958993 -7.13036 -12.6747
-0.917856 18.1403 7.81424
-2.71419 -19.6791 1.17736
-8.02435 4.18104 -22.2438
-15.3295 4.91832 2.96985
1.30598 2.76232 -12.2438
-4.23418 0.625805 -22.5644
-2.96551 21.6336 -9.60007
-14.3618 6.14241 -18.6091
-4.47701 8.00228 -22.8958
-3.15178 14.7162 -3.74577
1.32144 -14.8386 4.71149
-4.71886 -19.2803 1.59215
3.34174 -11.8888 -2.38689
-5.17639 3.09014 -26.4607
0.851982 -6.29232 -13.6458
-8.58983 20.8882 1.75227
-3.32599 -4.68028 -20.9804
-0.593861 16.631 6.3182
-3.46391 -17.2388 2.04468
-1.57266 22.0779 2.47131
2.12142 -10.041 -13.0584
-5.57224 -1.86726 -26.4525
0.954066 6.64906 -10.2999
-2.02219 -3.14492 13.4745
-5.7633 24.4334 -2.39465
-5.86582 24.7909 -2.35044
-3.92077 -4.99574 -18.6473
-12.1987 18.8659 -1.13688
-2.0674 -7.14675 5.30426
2.4584 -4.81692 -3.7438
1.2365 -3.55308 -17.4057
0.677448 12.6427 5.5697
0.125092 8.83514 -17.7183
-13.9751 -5.0032 13.5822
3.32131 -11.8087 1.60481
-1.15074 -19.571 0.817654
-3.48104 -2.8771 -21.6544
1.36825 -8.40888 8.31474
-7.14036 1.57554 -27.1509
-2.43737 -7.21099 5.99917
-1.88112 -12.943 -0.0563547
1.62928 -4.14844 12.7472
-3.11724 21.8435 2.75933
-0.914209 18.6011 6.49054
-2.80586 -13.223 -8.85696
0.0176995 23.4557 -2.05972
-9.7132 20.1078 -0.577901
2.65907 -6.24472 8.74055
-0.57017 -12.5123 -1.70113
3.01573 -9.30346 -7.18498
0.573077 -16.3756 2.88526
-9.91937 2.28109 -26.5395
-9.1581 5.39604 20.0369
1.91279 -4.02919 12.9845
-2.90517 17.8521 5.31362
-2.46697 -10.5185 7.39469
-7.14185 -8.65425 9.2899
-9.37944 7.47754 -20.504
1.07513 5.24961 -2.76335
2.34451 -2.97257 -26.3997
-11.5656 3.82709 -22.465
-0.336028 18.6672 3.28208
-3.96848 -17.263 2.1607
-3.74195 -7.20838 -12.8758
-13.8644 1.82364 16.253
0.686546 -5.11403 -19.7721
-9.57489 5.4063 -22.1736
1.92892 -9.21961 -1.36676
-0.277556 -7.47483 -11.9796
0.0694565 -5.81258 11.8516
-0.28048 17.3966 -0.830409
-1.43793 -13.2949 -1.36591
-4.43725 23.6335 -4.61765
-15.4924 -0.109513 3.03418
-4.99819 14.0255 -4.06108
0.850624 5.60838 -22.3962
3.4867 -12.5314 -7.27507
0.418772 1.4416 6.68969
0.184122 19.9202 -4.42257
1.81957 -4.74718 5.58883
-4.86943 10.6437 16.149
-0.848703 19.8949 5.77036
0.516153 6.10117 -24.4424
0.454868 -9.01612 7.99586
-8.45935 8.79496 -8.0448
-11.6582 -2.87953 -17.8662
-5.26586 -10.2303 8.43686
-6.14744 -8.94156 12.4585
-1.95957 5.30059 13.7425
1.92896 -9.60028 0.0333328
-8.60582 22.2383 0.704215
-5.56847 -9.09364 -15.5509
-2.41008 1.05885 -20.2412
-1.0472 -7.57352 -9.18674
1.54522 -2.01448 14.0013
-14.5983 -9.94634 10.1217
-2.95832 2.61227 3.69881
0.361023 13.1626 5.07821
-10.2108 -5.11794 14.2815
2.82185 -8.59075 -7.4383
0.587629 12.1723 1.46237
-0.394948 -7.80591 8.83435
-13.9765 9.35128 -11.9881
-10.0946 2.25402 -26.4115
-9.41425 4.02193 -25.4524
-4.23618 24.0612 -7.76471
-10.3035 -4.81399 -13.0635
2.63933 -7.54543 -11.8048
1.55376 1.67153 -6.60838
0.412709 11.9862 1.49922
-5.04791 15.8868 6.77892
1.39452 2.2456 -9.77091
-14.9208 3.65054 1.24122
-5.68774 18.8999 6.57922
-15.7533 -0.196925 3.40402
-7.71 -6.71372 -15.1135
-8.95045 2.90687 18.333
-3.86482 -2.19408 -25.3278
-13.2023 -7.85575 -3.38771
2.90318 -9.38097 -11.2385
-14.2935 -4.64964 13.9739
-3.16837 4.57636 -22.9799
1.84288 -0.244258 2.53702
-10.4911 3.74422 -22.532
0.529808 -9.84111 -13.27
-5.14853 19.1007 -0.779122
-5.67905 11.4671 18.0275
-12.8728 17.3145 -2.20088
-3.16032 22.2402 -8.8274
2.63886 -7.84255 3.40123
1.65845 -3.81754 -13.2262
-15.8115 -0.92244 -0.940304
-2.4504 20.9992 4.32525
-3.5111 -11.3298 -11.8542
-3.25807 -5.253 -20.4329
-8.29476 -8.83453 12.0672
-3.09135 -3.1726 -20.7072
-3.53581 5.60297 18.7706
-1.39632 1.41042 11.4005
-6.4801 17.6539 7.53794
-2.97683 6.15458 8.31271
-2.87717 4.72217 18.0697
-0.62792 -7.61093 -10.1937
-3.26159 4.91213 18.2024
1.19393 5.82986 -5.26429
-5.56488 9.815 -16.0469
-0.993353 -3.12958 13.5112
-1.30627 6.21276 18.8351
-3.98694 -15.6516 -5.15672
2.73369 -5.42694 11.4617
-3.94245 -0.982892 -24.2904
-12.3327 7.51705 -8.16916
-4.25539 11.1625 10.7021
-6.68476 9.35209 -16.1538
0.161663 -13.2642 4.78433
-4.93067 13.1167 -5.54217
0.073575 14.4565 -4.07247
-1.93953 -0.330856 -15.6933
-6.44579 24.4962 -1.38695
2.51832 -9.20547 -13.2065
-12.7574 -5.8266 13.7103
2.62404 -10.2983 -12.3507
2.6104 -11.4355 -0.000522432
-1.74355 5.02506 16.2393
-9.15392 3.031 18.366
0.186494 15.06 3.17935
2.19185 -3.01993 -3.57567
-3.86775 -1.53892 -25.006
1.16796 -10.8639 -11.7457
-15.312 4.44857 0.893771
1.98406 -8.24114 2.79282
2.1588 -5.63355 3.18026
-14.7193 9.32873 -12.062
-8.54365 7.39657 -16.6714
-1.79833 25.2754 -2.64542
-12.6838 -9.74729 11.4008
-5.81844 -0.68129 -28.327
-8.0631 26.6577 -5.01172
3.39678 -12.1509 0.858441
1.74053 -5.64957 -13.6544
-15.2956 5.30744 2.97651
-0.541077 2.93881 12.7985
-7.68862 24.218 -1.19526
-10.9392 -9.51272 11.4471
-15.9978 10.298 -13.8981
-12.7472 -2.44733 13.9183
0.0870152 15.4624 -1.95609
-0.582784 -12.4007 -9.75646
2.10346 -13.1701 -8.24944
-8.46663 0.432622 16.702
-9.15855 0.849054 -26.8517
-9.06813 -9.42856 9.44413
1.34511 -3.30127 -10.84
-14.0771 -2.50146 -13.3759
-10.9062 7.80183 -16.275
-2.17488 -14.5193 -6.88107
0.134679 13.7412 -3.95811
-8.7332 11.4175 -14.3663
-0.288019 -13.3634 -4.49401
-4.70688 -5.57572 -20.7658
-1.96914 9.14618 -22.6883
-15.0056 10.1814 -13.3949
-14.0115 0.845759 17.6086
-5.6649 -18.3694 2.26434
-9.05796 12.853 -5.14776
0.178159 13.2368 -3.78263
-13.4573 6.65066 -19.283
2.58145 -6.0739 -6.69005
-15.6391 9.68226 -14.7278
-4.38572 23.4324 -4.78966
1.89458 -8.23915 3.41946
-1.21945 -11.4598 -11.3921
-4.59665 -14.3621 4.79377
0.0417217 7.52578 -17.9629
1.15695 -8.0488 9.55693
-1.09317 -12.1031 -10.228
-2.03381 22.7005 1.40106
-1.97259 9.27503 -8.35771
-10.7565 -0.0355641 16.3617
2.34364 -6.09158 -14.8324
2.6119 -6.71864 0.241315
-2.80518 10.8471 -15.7187
-4.71232 -4.26658 -9.81069
-8.75569 -12.0623 8.73792
2.02903 -5.18455 -19.017
2.40947 -4.52587 4.44081
-12.1518 -11.216 -1.50774
1.53776 2.6163 -6.79376
-2.87972 21.4674 3.48649
2.7293 -7.29243 -14.3244
-2.93772 20.5172 5.10245
-1.55571 9.2476 -22.7583
0.587994 12.0337 4.39264
0.634152 10.3255 -0.588108
-5.57155 -3.53002 -23.8157
-8.34474 8.65405 -7.97554
1.18832 -16.7544 2.03188
1.29328 -13.6295 -6.35176
-6.67896 24.1212 -2.37217
1.73277 -9.43101 7.64496
-1.4318 -14.5687 -6.76692
-1.86174 1.84971 -21.7437
-0.712625 20.5769 0.860054
-15.3873 5.63215 2.60251
1.89067 -8.85966 0.635135
-3.52553 1.13898 16.5908
-1.35539 17.3981 3.95085
-8.06296 21.5141 0.877172
2.62483 -4.89242 8.33083
-8.46926 18.9002 6.31518
0.886787 2.68901 -22.4931
-0.531636 19.6269 1.14905
2.31162 -3.13034 -2.81428
-5.04901 3.71611 -26.0516
-0.0422821 8.80129 -21.0258
-4.12715 -11.7588 -10.0319
2.96288 -10.8268 -1.8134
1.47126 1.49481 -12.296
-17.4563 10.6926 -14.7083
-6.04922 -7.2426 -18.2779
-3.31884 22.1858 -9.03281
-13.252 -8.59683 -2.69291
-11.3588 10.9095 -13.792
-17.9352 11.9187 -19.4718
-15.0094 -5.63995 12.7282
-2.71721 20.646 4.9907
-9.68982 2.32391 -26.5269
-1.9353 4.752 -25.7923
2.43053 -5.1548 -2.29569
-12.7915 -1.25354 14.9204
-5.82202 -0.953796 14.3911
-13.0089 -8.98237 -1.32311
-4.99523 20.1036 5.04152
0.647048 8.50573 -1.97075
-8.04033 25.2807 -2.2184
1.35268 4.31283 2.78224
-1.67466 16.1705 6.291
0.680826 -3.47072 13.1814
1.72069 0.487928 -4.54507
2.32502 -2.78451 9.23843
-5.33267 -11.8752 6.39628
0.126996 -7.69694 10.6692
-3.08472 3.5473 4.41638
-11.1008 2.89365 -25.9826
-3.22742 7.24862 7.21544
0.472376 10.6452 -15.8292
-4.23906 -11.8959 -10.2632
-12.2229 8.11204 -9.40939
-12.5681 5.59352 -18.4983
0.371516 12.8976 0.27302
0.979029 4.91546 -18.7624
-3.02543 -8.10711 5.45194
-0.0971296 23.9399 -1.52645
0.828932 -12.8566 4.96444
-5.01165 13.8338 -4.2852
-1.03404 2.17307 11.7747
-3.14537 6.23591 -24.5919
-2.27299 -5.21596 -18.264
-12.2632 5.71888 -24.2016
-5.76477 10.5687 17.0507
0.399302 12.0907 -5.87443
2.02783 -7.99615 2.79375
0.890176 -0.14859 14.9436
-5.62527 14.2362 -3.78213
-0.703786 2.54316 -22.4103
-0.576041 15.2132 -4.56216
-0.748483 2.30111 16.2003
-15.4697 9.85746 -15.557
-6.67461 -11.2743 7.37751
-5.29275 -17.5187 2.85171
-4.31857 -4.21238 -10.5225
-2.91448 25.0839 -1.10628
-6.36549 -4.21672 -22.4623
-3.33482 17.5748 8.83428
0.0435734 16.481 4.73534
-1.3533 -3.74949 -22.1424
-8.20797 26.1027 -3.0809
-3.58047 24.648 -5.94703
-5.32356 5.37859 19.6985
0.355329 12.787 -1.83242
-10.0242 -2.60698 14.0545
1.47401 2.34663 -11.3972
-0.163698 17.7481 0.840312
2.60013 -6.03047 3.46153
-14.068 -7.39418 0.0573322
-1.05648 -3.89307 -14.7302
-13.8144 -2.02849 -11.3812
-17.8452 9.74891 -20.97
2.40588 -5.22609 -11.481
1.59282 -0.862775 14.7596
-13.529 -2.14775 -11.33
1.34587 3.91237 -13.0141
-5.44566 23.8599 -3.37715
-5.78197 13.4361 -5.44426
1.25087 4.15112 -10.4464
-6.68503 17.9493 4.57196
2.54321 -7.02115 0.524767
1.31002 -9.25829 -13.631
3.21731 -11.2401 -8.29788
0.44891 12.0652 -0.893183
-10.9257 3.98724 19.2542
0.0533119 22.5176 -2.40849
-6.76857 9.1596 21.4673
-3.9746 22.9178 0.888671
1.81387 -1.17309 9.98947
-6.3684 16.6371 7.58961
-3.89733 -4.64951 -10.1956
-1.21989 -13.9585 4.17679
1.6095 -9.09363 -13.5562
-5.07134 16.7062 6.18042
0.706024 10.1432 -2.71851
-2.72291 -1.7383 13.5115
-1.11719 2.93607 -24.8575
-12.0407 3.21267 18.8367
3.09686 -10.5217 -11.4246
0.819092 9.43046 -1.27623
1.70948 0.883231 -3.11691
0.979355 5.74084 -14.5246
0.786529 8.68592 -5.93186
-5.46356 24.9495 -4.66042
1.01538 8.76198 0.437975
-3.34882 4.01379 17.692
-7.12962 20.9628 3.33434
-1.81876 0.0833817 -16.886
1.36447 2.37281 -17.186
-5.07039 12.8828 11.6087
-7.68625 6.98771 -17.4713
-10.5752 -5.217 -9.7945
-1.42947 -6.79161 -9.35652
-5.50752 16.3088 10.7989
1.42754 2.94941 -6.79825
1.03374 -12.0591 -2.75533
0.347841 9.41829 -8.39616
-15.1421 -0.465329 16.7109
0.822664 7.91994 -0.872765
-2.16992 -4.72995 12.9266
-12.7519 -2.69125 -12.3323
1.85778 -9.30981 -2.8181
-1.44027 21.0668 1.43131
-0.757803 2.93587 13.9427
-4.56253 -5.63944 13.435
-2.23992 18.0097 8.41643
2.35956 -2.44783 11.638
-0.698018 6.96163 1.61725
-0.18928 18.3763 1.95839
-7.6527 -6.20604 13.2322
1.39828 3.57162 -6.93031
-6.32225 11.6608 15.5263
0.54397 -11.9503 -3.69701
-3.32863 -3.97783 -20.083
2.53934 -6.79919 -15.6055
-1.02053 -6.5965 5.63589
-6.89725 11.8974 17.4448
-1.98116 0.819072 -16.0846
1.65825 2.48458 -0.330588
1.18949 1.7832 -25.2353
-1.027 9.80697 3.64344
-4.06786 13.736 7.44157
0.856182 10.513 1.29863
1.54926 3.39141 -0.524801
0.772447 8.21709 -8.33478
0.432698 2.65037 -25.7402
0.437423 -5.51293 -19.3243
2.43009 -5.53262 -7.18552
-8.27436 6.40574 -24.0813
-4.34451 -12.7607 -9.71004
-2.1544 -7.02403 11.3349
-3.98736 10.1361 -16.0282
-7.90849 -6.38811 -14.9673
-13.3137 6.37392 -19.021
0.779416 6.2985 -18.2548
2.02931 0.280576 14.1374
-14.4643 -1.53743 14.6573
-13.0047 -6.46828 13.0965
1.76736 1.20873 -0.884152
-15.0876 -3.84022 7.20086
-4.37694 -9.92425 -14.3266
0.276626 3.76781 2.69671
-3.14871 -16.7332 2.75647
-5.27975 16.7324 5.2008
-1.93966 1.12433 -24.0929
2.26194 -1.89585 13.468
-0.27838 -12.5542 -1.75897
-5.00417 -12.6842 5.66131
2.38268 -4.05348 -1.20315
-1.59874 -0.717626 -15.6894
-6.12908 -12.0516 7.68448
-0.579269 -1.36015 9.55833
0.421793 13.1853 4.60075
-1.86607 4.98086 -25.6279
1.62761 -13.235 -6.17489
-7.29383 4.28805 -25.4254
-9.09246 10.4128 -15.1748
-4.13756 26.4582 -6.81928
3.2792 -11.8603 4.06211
-11.4674 -8.84559 10.0081
-3.57792 -2.64476 -18.8847
2.43291 -5.44316 9.03916
-2.49523 6.22689 -24.7283
0.236957 -0.947658 -16.3776
-13.3053 14.7475 -3.52661
-12.6022 9.56506 -12.0742
-3.22987 -4.81715 -21.3396
-1.53314 24.6147 -2.03066
-3.93375 3.56765 17.822
-11.0427 2.72203 18.2298
-0.173891 22.2338 -1.14838
-5.02074 16.6767 6.21716
-10.4114 6.22029 -23.9721
2.95861 -9.93804 -11.8454
-6.03694 20.9263 1.42894
-2.04593 1.09428 -15.6411
-3.88006 -1.1457 -27.5051
-12.7638 -6.37733 -4.38777
-5.93947 18.5741 7.11682
-8.42995 15.0163 12.4749
2.27291 -3.66643 -5.73367
1.49624 2.32432 -2.7646
-9.32484 6.16959 20.8144
-13.4288 10.8792 -13.9265
-3.78157 21.0107 1.36332
-0.0513009 16.0469 4.17332
-7.89287 18.4157 -0.946337
-7.11574 5.95406 -24.3855
-8.12849 -2.50983 15.1529
-0.117509 20.4103 -1.96131
-3.21473 -11.5647 -10.9918
0.957134 3.30462 -26.6566
-2.22869 -13.0495 -9.11557
2.04071 -1.26532 10.2805
-5.20613 23.9759 -2.64787
-3.15127 24.6926 -2.06147
1.45369 1.69142 -21.0899
-9.77914 5.88944 20.2495
-2.58009 8.97093 -22.1147
1.15137 3.94808 -18.0063
-3.24558 23.1249 -8.3621
-4.79283 10.6748 17.0319
-0.101189 14.3327 -4.0018
-10.7532 -4.70461 -8.95602
-1.15985 -0.502984 -16.1066
0.50896 10.2304 -13.8401
2.46599 -5.83621 -17.211
-12.6957 2.57954 17.9515
-7.37751 23.4664 -3.34332
0.936889 6.80698 -11.2031
-8.85625 -13.4964 5.46405
-8.61787 14.232 -3.83005
1.06287 4.82243 -18.5957
-0.555163 19.5975 -0.0510814
-7.42445 26.6531 -5.84105
1.63485 0.921076 -19.4241
-4.41476 -15.1439 3.918
-0.101374 19.4256 -2.52926
-3.23764 -3.96669 -13.6892
-12.2862 6.64497 -23.6244
-2.5802 12.0026 -14.0718
-7.07391 -6.31808 12.8898
-12.4613 4.18159 -25.0157
-16.0013 9.29276 -15.4736
-2.40189 10.9799 19.4523
-1.87036 1.65094 4.84553
-1.64536 -0.756142 -16.9332
-0.766623 -5.56664 3.75423
1.68175 -7.90722 -1.17041
-2.6609 -10.9887 -12.4411
-9.30501 20.978 2.87165
0.380867 6.32713 1.27985
-13.8445 7.36043 -8.35194
-1.50638 3.94801 17.4538
-4.5171 -5.79838 -17.827
-17.1943 10.0154 -6.61043
1.04641 -6.63202 -16.8448
-0.0832359 22.7744 -1.33991
0.965611 -13.9733 -6.53706
2.18757 -5.30983 -12.261
-6.02043 25.4252 -4.46163
-0.320394 20.0195 4.50122
-6.25752 15.8011 11.3555
-10.7955 0.697093 16.822
-4.46675 21.2532 3.21724
3.04124 -10.2222 -8.31231
-4.78532 -15.0837 4.23786
1.82382 1.38888 2.19378
0.985281 5.10598 -18.0764
1.5613 -8.42643 -1.36784
-2.83552 13.9441 -4.13735
-8.79479 6.005 -18.1304
0.899552 8.0563 -6.08812
-7.83197 -5.48777 -17.6442
-5.83296 11.1514 -15.2318
-0.00126054 16.5378 3.06852
2.35236 -7.2023 2.85984
-9.2669 6.68365 -19.2803
-12.8821 -2.66111 -1.85016
-17.1703 7.68802 -7.76668
0.332178 12.003 -6.50689
-3.615 -9.38905 7.42199
-14.3968 9.53585 -16.7523
-4.25665 -15.9755 -4.90189
-2.18408 -4.80157 -18.7507
2.07626 0.595183 14.1268
-8.0487 3.94677 -25.6689
-3.84249 8.07867 -22.8188
1.27084 5.18685 -4.42557
-2.12993 -10.2296 -13.4434
-6.75042 16.7687 9.96201
-2.9144 -1.24832 -20.4138
0.703087 7.99225 -20.1021
-8.34295 6.41455 -21.8049
0.198631 15.0167 2.06201
-8.55278 22.0779 0.627329
-12.173 8.86267 -10.4739
-11.8105 -9.10453 11.7696
0.961344 6.49897 -10.9469
-12.0172 3.86776 18.4199
2.7164 -6.44816 -0.99159
-3.82652 24.2367 -9.62014
2.97212 -8.84868 -9.45202
1.3568 3.04705 -7.19741
-15.2301 5.49665 3.54244
2.73835 -10.1872 14.554
-3.36614 9.65336 16.0027
-13.9778 -4.7079 13.6343
-1.38836 6.15525 17.755
-6.19181 21.1865 3.26213
-11.4591 6.35486 -18.9812
-2.15661 -7.39247 5.23388
2.92252 -9.92083 -11.6006
-3.65792 -2.91444 -22.0671
0.78551 0.959875 15.2013
3.40781 -13.2356 2.66228
1.49211 -8.58094 1.13043
-0.0671651 1.32537 -16.5083
-0.264553 -2.48312 13.5961
1.09852 3.66061 -19.6221
-2.26255 -5.6717 3.90168
-2.83954 -6.88047 -17.0328
-15.1585 5.75653 4.26343
-1.20906 -10.2405 -13.4117
2.10624 -1.29133 14.1504
-0.363447 19.2481 5.21242
-2.65757 12.9717 -6.00125
0.466691 -12.5286 -9.51643
2.02745 -4.9168 5.37401
-1.47678 -6.65965 -13.4398
1.83108 -4.75964 5.33995
-14.8497 -5.08832 6.48821
1.56524 3.81213 2.06069
0.708438 9.82297 -3.07244
2.95496 -7.46375 9.20767
-15.265 -3.14324 14.965
-0.412041 20.4876 4.76038
-0.0629947 -13.2255 4.75576
0.337068 11.5294 -15.2839
-15.3885 5.07938 4.54907
-16.909 8.49212 -11.0439
1.42593 0.717716 -18.3571
-1.92074 -12.6582 -9.49837
-8.7863 17.7859 -1.56097
1.65841 1.13847 -10.7058
-4.00647 7.97802 -23.4164
0.82861 9.45177 -1.86669
-2.03471 18.5048 7.37955
1.58214 0.890136 -17.8117
-8.20923 6.58388 -17.6406
-4.16348 6.98948 -17.851
0.0619567 -8.40372 -10.5941
0.697567 -13.1184 3.5768
-0.0117744 21.4996 -1.43187
2.84703 -9.03631 6.50377
0.319561 5.44179 1.54818
-2.45363 24.0991 -6.98839
0.912849 9.47759 1.95956
-11.2192 18.948 -1.21353
2.00111 0.62146 13.7963
1.16197 4.51681 -10.0667
-13.6816 -0.573218 -1.75524
-2.36078 -16.0752 3.37481
-3.69562 -19.2677 1.34773
-8.37076 25.0418 -2.09442
2.49659 -3.6286 12.8865
1.85416 -0.503437 -20.1086
0.365977 -12.6205 -5.52442
0.111693 14.9074 -0.981655
-15.4115 10.2113 -14.6085
-0.454564 10.9994 -12.256
3.08051 -10.8567 -11.0468
-3.23315 9.24915 7.00118
-13.077 4.40036 -24.6996
-6.72455 17.6439 4.58604
3.02444 -9.96072 -10.4875
-2.26739 22.5569 -7.85316
-3.66421 0.429074 15.4133
0.983321 7.65186 -4.01774
-3.02354 10.8735 16.6929
-2.04423 -10.2421 -13.2811
-2.4114 -5.12816 12.565
0.715756 -7.53349 -8.60598
-1.12161 -7.27006 -12.7268
-2.37612 -10.6567 -12.6502
-15.4256 -1.94514 7.01111
1.57442 -2.53162 -20.3969
-10.143 8.52352 -9.5828
-12.6479 -9.10024 10.5611
-6.6972 10.832 -12.7842
-8.41934 24.1384 -1.59037
1.92861 -1.09459 -12.2404
-0.818408 23.0449 -3.12199
-11.042 18.0031 -1.4629
-3.4054 -5.09795 12.5924
-4.24604 16.0296 9.17344
-0.127477 21.6771 -1.35205
-4.94343 14.0949 -5.08105
-2.55054 -10.1894 -13.6162
-2.28656 6.58729 14.5915
-0.653589 17.7497 4.14763
-6.58767 -2.0461 13.2034
-7.09245 10.4495 -12.4039
-7.16446 4.35257 -22.126
0.790553 2.61875 6.5194
0.789796 -8.57532 3.36913
-10.7244 -2.99438 15.3235
-9.79312 5.80235 20.2356
-5.38696 12.0602 9.52247
-1.1113 13.3105 -5.79454
-4.23078 -2.3213 -25.7599
-8.78191 -6.13748 -17.0747
1.79284 -0.878122 14.7339
2.47378 -5.78065 -9.54112
1.32966 2.86441 -10.6271
-10.1959 0.812664 -26.8748
-17.1848 10.4694 -13.9416
0.47365 5.0373 -23.5198
-1.2857 5.98208 18.2631
-14.9934 -5.83331 13.1711
-1.23588 24.6891 -0.917179
3.08926 -11.0178 3.50099
-0.350127 20.3963 3.5772
1.28777 -7.22954 -10.13
-12.3399 -8.42105 -4.64691
-12.8195 -0.861516 15.2125
-2.81241 11.0815 17.6456
-0.646173 26.0995 -2.29172
0.127427 7.19314 -23.9402
0.219755 14.4193 -1.7437
1.94105 -0.921816 -4.09709
-2.13359 -14.8029 4.04649
-2.51851 20.6434 -0.60228
-8.64765 -12.1621 8.63319
-1.06713 5.37522 18.3211
-9.64265 7.74226 -21.4831
-3.13822 3.4758 2.47534
2.92975 -8.61035 -8.68066
-0.90305 1.93123 16.0695
-4.16771 -10.3677 8.17394
-3.76392 8.63167 21.7869
-2.82034 -7.02908 -13.2537
0.563623 -4.50742 3.44616
-7.54174 -4.44809 14.2101
1.52821 1.30291 -18.0685
-14.9947 9.3291 -12.0378
-4.00461 -17.8628 -1.25708
-3.55545 5.72842 -22.5942
-9.62886 1.60868 -27.0325
1.60363 1.67554 0.264773
-5.56759 -0.145447 -28.4401
-0.00574961 -13.9683 -6.96848
-0.983487 17.965 -1.10032
-16.2815 5.35285 3.17157
-8.47699 13.9755 -5.11392
-2.10468 12.1373 -14.7254
2.34225 -3.06754 10.6371
-10.9809 6.69826 -16.9502
1.27987 -4.34485 12.7335
-6.24053 9.92562 -6.29849
-6.58626 -6.7546 -17.0838
-0.153865 -13.2982 -4.25933
-3.13517 8.38082 9.93493
-9.71781 9.52015 -6.13992
-1.62428 -14.5506 -6.67753
-13.1726 -2.25339 14.242
-7.49888 10.4072 19.4796
-4.97557 26.957 -10.2445
-5.76001 16.3231 10.4824
-0.0181225 9.09882 -8.2627
-13.6115 4.74847 -24.5301
-12.2988 -7.63008 -4.30636
1.41055 -5.18866 5.78727
-5.8567 13.6503 -5.01496
-3.24799 -10.1902 -13.6029
-3.47534 24.1665 -6.70775
1.53718 3.70557 -0.750265
-12.2496 -10.0691 9.15042
-12.5278 -9.55934 9.47558
-1.21025 25.2154 -1.28668
0.543989 10.2896 -15.2906
0.119285 13.5885 -3.86025
-3.7368 -1.84961 -23.1115
-1.22762 -7.58228 -13.7075
-0.90368 24.2898 -5.03952
-1.37983 -7.32058 5.43183
-0.0665661 1.64679 5.57087
-14.9795 -1.11943 15.4644
0.774044 6.88702 -12.2001
-13.3546 6.01004 -18.0625
-0.432496 19.4859 2.38549
-6.0345 11.7486 -5.34533
0.543767 9.65827 -14.0971
-4.50394 -13.7785 5.12237
2.00448 -6.18023 -10.5078
-4.25822 23.0215 -3.78653
-4.04601 4.74105 -23.7277
-1.64285 -9.94309 -13.3821
-14.9773 10.3194 -13.4468
-0.453511 -6.32191 -7.46407
-2.09349 -16.6374 -3.65598
-7.71251 28.0513 -6.80701
-10.7281 7.03817 -19.7659
-10.8021 -0.491106 15.1762
-0.279382 -6.05561 -8.75966
-8.25501 10.7261 -14.9393
-15.3337 -3.99556 14.4932
2.73024 -13.0503 2.86542
0.631582 7.73274 -20.4567
-7.67044 10.3097 -12.2214
-1.46933 -8.58814 8.49675
0.0347978 16.0334 1.32823
-3.32532 -4.71513 -20.3053
-11.9098 10.8172 -13.8197
-7.71058 12.5677 16.0287
-11.1557 6.01821 -18.2907
-7.69373 17.794 8.06763
0.609389 10.044 -2.41695
-7.38938 15.9976 8.30366
1.34076 -2.34257 -21.7804
-17.8279 10.411 -20.4553
-7.37708 20.9421 1.94429
0.226105 13.4067 -0.528706
-2.73289 -3.7989 -10.6403
-13.8927 6.76913 -19.808
-0.375816 19.7445 5.9336
-1.38307 -6.65321 2.6449
-3.27337 8.31381 14.2425
-4.29164 -7.89037 4.40764
-0.167944 24.8927 -0.957042
1.83731 -0.62328 -4.58897
-2.59588 -13.5779 -1.06119
0.934137 6.02295 -15.615
-7.21215 18.7103 -0.797073
-15.6155 -1.3927 2.6849
-14.7269 -8.1084 10.2141
1.1305 -3.47881 13.3151
-9.75149 6.42815 -17.2267
-0.0540328 -6.59251 3.38602
1.89622 -11.5925 -3.58755
1.15399 5.00041 -9.40543
-15.946 14.3509 -3.72978
0.776207 -2.15185 -17.9915
-5.91213 12.5443 16.5625
-16.4681 2.17872 1.80963
-15.1123 2.91267 3.36012
0.82767 7.93141 -8.23672
-6.43125 24.8826 -2.13291
-10.4089 -9.54328 11.2971
-1.14756 -8.24676 3.64754
-0.559593 6.47303 -22.9014
-8.78311 -0.702771 -26.5051
-2.99231 12.8738 -5.92743
1.18604 -7.66587 4.4485
1.13463 4.29557 -16.0598
-8.24473 -11.4424 8.99577
-10.6966 -4.3883 -10.1209
-6.58897 9.38334 -5.06041
-2.5118 5.91749 -23.0284
1.76668 -13.9076 2.04861
-2.88058 -8.60798 -12.979
1.1668 -6.35751 -13.5887
-4.24461 -15.4565 3.5422
-2.65496 9.58847 -10.9175
-10.8778 4.21179 -22.5196
-1.32044 -3.19444 13.8228
-9.9517 5.07274 19.9096
-4.37075 25.9017 -10.3832
-8.17456 -2.85319 15.1658
-5.59341 8.65666 -22.3693
0.420751 6.88647 -18.4031
-1.13975 -5.35583 5.29366
-12.9832 5.89161 -17.9026
-3.19802 10.9691 -15.4231
-11.129 2.71348 18.3495
-7.33821 8.6445 21.8198
-1.06398 -13.6543 -7.52313
2.20742 -8.96592 -2.27359
1.42512 3.53492 1.75963
-3.62552 11.0561 19.2976
2.21735 -2.73075 -2.81653
-10.1211 -8.90076 12.2532
0.383653 -0.525477 9.31279
-5.81716 -5.17254 -21.5748
-13.0109 8.41745 -10.4219
0.630009 8.98376 -14.8725
-2.78372 11.8539 -14.6223
0.237655 13.803 5.83646
1.31223 -0.505527 -19.4511
-0.871163 -12.5515 -0.510855
0.0291044 4.12222 -26.211
1.71583 -3.22006 -20.0934
-1.8287 -9.68916 -13.6037
-9.04823 -12.7264 8.24585
0.0614034 15.7053 0.746712
-1.08872 18.2797 6.51269
-2.72639 -11.0692 -12.064
-17.2182 10.8471 -5.97058
0.250377 -6.36364 -17.9794
-3.36216 23.5224 -9.44597
-3.04535 -6.08203 -14.9328
-15.4293 5.35801 2.76979
-2.24608 11.8827 -13.6399
-9.42452 2.27398 17.9619
-1.45621 -9.44758 -13.6358
-12.1001 6.96622 -23.3185
2.44036 -4.23734 12.0997
-6.08477 22.3673 0.541977
-13.1542 8.25594 -22.343
-12.2233 -9.93277 -0.196953
-2.74428 1.86207 -26.0169
0.797484 -16.5288 1.67044
1.57502 -11.3168 -10.9724
-3.80896 11.1641 16.6187
-3.35262 23.1833 -9.3026
-0.0975481 21.8775 -3.11468
-3.32786 -6.03781 -20.0159
-5.42191 25.9454 -5.69559
1.71362 -7.63328 -15.4939
0.777358 7.42604 -9.56928
-17.0818 13.384 -4.32994
-3.20476 22.5028 1.17166
3.4195 -12.5369 -7.0746
-8.5442 -6.06699 13.0775
2.20689 -3.01761 -2.54589
2.04617 -9.91792 -1.06784
-16.0586 4.6472 2.61574
1.00566 6.40338 -9.50594
1.8219 -3.48665 -20.3634
0.109043 14.9185 1.92985
1.52466 -7.66055 1.05707
1.80466 -9.23185 -2.70349
-4.97842 16.2914 8.52585
1.23812 1.77303 -25.3391
-16.059 10.1232 1.51968
-2.54246 5.70457 -23.4276
-5.30072 20.4102 4.46169
-3.71405 -2.2876 -24.8498
-3.61557 2.78055 16.9807
-3.16122 6.53803 16.1169
0.511038 3.68418 -26.2158
-5.46642 -5.25302 13.0635
-16.501 10.1713 -16.3488
-1.97696 -6.26874 4.57706
1.05264 4.0676 -15.9388
-1.7975 7.78478 15.6707
-4.86258 24.6064 -7.5955
1.49796 3.17986 1.95099
-7.56498 6.2007 -18.0674
-0.12868 16.1464 -3.81698
-2.79843 -2.26097 13.7248
-3.46667 1.85217 -15.4911
-5.04123 24.2937 -4.6892
-13.5843 17.2141 -2.1057
1.35553 2.19518 -16.3348
-6.62361 -17.5727 2.63071
1.01121 4.5044 -20.8735
0.0345094 21.6407 -1.91346
0.739941 9.01344 -8.06834
-1.91137 26.2926 -2.60563
-3.66687 -0.421325 -20.2703
-0.407366 4.66216 1.0933
-1.25167 9.62151 -8.1459
-15.1803 -4.67767 5.48829
-4.25899 11.4275 9.3538
2.33889 -5.32149 -15.637
-6.14317 -10.0331 8.58965
-4.76145 3.34486 18.3617
-12.5081 -9.62694 9.32835
-0.395078 19.8745 1.41152
-5.10895 7.44945 21.0521
-2.76852 -7.10108 -12.9493
-5.11228 25.9999 -9.52917
-3.71659 -3.25357 -21.1018
-10.2798 -9.23512 11.911
0.548101 2.09128 6.23183
-16.4554 9.98783 -16.5469
-3.935 0.687034 -20.9407
-3.61031 -8.03455 -12.5172
1.90163 0.889162 10.5308
-2.1523 -18.0947 2.02681
0.098311 15.5632 6.17739
-14.2886 13.2422 -4.51745
1.39314 1.85241 -17.1691
0.413006 -11.9956 -5.218
-0.844529 16.1697 -2.14343
-0.771177 9.3244 -8.48336
-10.561 14.5351 -4.11737
1.25747 -0.155063 -20.5498
-1.76353 24.115 -6.63688
-14.4564 6.38475 -19.3683
1.75308 0.315337 -11.6483
0.865788 -1.15264 -17.009
-10.4811 8.14703 -8.10225
0.819316 8.66971 -4.3274
-6.83343 13.794 -4.99033
-3.00864 9.9437 17.9161
2.74573 -10.7171 5.82606
-7.96018 6.84094 -17.459
-4.99163 8.78357 -22.0977
1.16249 5.52259 -6.11761
-1.08761 0.708829 -19.7436
-4.0891 2.79801 3.21344
-3.49021 22.8917 0.685348
2.96627 -9.14787 -12.8424
0.997252 -15.5898 3.27937
1.49283 -2.35959 -11.8024
-2.54818 21.7193 1.51252
-5.59951 14.3212 8.56432
-6.85076 19.0911 5.67536
0.132456 14.4202 -3.4898
2.27325 -2.41596 9.95696
0.562209 11.1953 -4.16365
-0.635864 19.8726 5.87013
-3.01361 9.31907 21.6761
-8.02269 18.5973 6.78879
-3.07213 24.0371 -5.14587
-15.3937 -3.21299 -0.895728
1.03898 6.28487 -9.21798
-1.7559 18.3997 8.25073
-6.04838 -3.15169 -24.943
-0.0243252 1.53584 -16.8754
-2.54915 -12.6512 -9.72906
0.955172 -1.72803 -15.7618
2.11087 -4.58975 -15.9674
-6.18516 17.839 6.87321
1.53404 1.80469 -12.0663
1.70983 -12.7284 4.12426
-2.49684 1.45804 -15.3809
-6.75107 13.4447 14.9644
-14.7396 -2.78612 14.392
-5.0218 -18.4964 2.05823
0.0299534 15.4703 -0.341328
-3.75935 0.301291 -24.0658
0.947516 7.90941 -6.58118
-2.88939 11.827 5.09101
1.66901 0.428313 -4.51626
-10.6541 11.2369 -14.2051
-10.2433 9.17334 -15.6286
2.7323 -11.4109 5.65741
2.80089 -8.15595 -12.6213
-11.4215 9.46736 -11.3383
-0.0177035 9.13545 -21.9392
1.88197 -4.57287 -17.3932
0.415227 11.9038 3.61027
1.43476 4.27289 0.811283
-5.66108 -9.87304 8.99704
-4.07082 14.804 7.51099
-1.44126 21.8541 1.88622
-17.4154 6.96602 -20.847
2.79845 -12.0741 5.23822
-1.35022 2.44021 -22.4291
0.851193 10.1735 2.18187
-1.87728 21.4167 0.154415
-13.6267 -3.04399 -13.3534
3.2712 -12.9176 2.79184
-0.79796 -10.4047 -12.8963
0.0872782 16.1101 7.22654
0.0153029 15.4407 0.411119
-6.84626 -0.384247 14.9295
0.0561445 -8.8838 -13.8093
-8.6074 -5.81264 -14.9338
-4.03188 0.0955098 15.1191
-3.23735 -5.21512 12.8215
-2.53338 24.9138 -0.796253
1.68882 -12.211 -9.63124
-11.486 8.06331 -9.32418
-1.88841 17.4664 4.59405
1.88633 -6.04671 -10.8092
-15.7749 8.2496 -10.5157
-14.874 -7.00195 12.454
-2.15312 7.87784 16.9584
-2.89437 -15.135 -1.97012
-13.0014 -2.85285 -1.91539
0.780143 9.89988 -0.943471
0.188705 -7.55714 9.42945
-11.0657 11.1796 -14.2045
-11.2018 8.43735 -7.91381
-11.5141 0.472154 17.1504
0.0853743 21.4179 -3.05436
-3.00577 -7.87809 -13.7122
-0.483678 19.1729 0.82225
1.85336 -7.04674 11.0983
1.36828 -12.6638 5.24019
-3.41638 -2.13118 -17.5932
1.28397 4.16256 -14.0654
-3.19484 9.59778 9.00476
-10.445 0.0942014 16.627
-14.877 -5.09855 13.5859
-14.263 0.884069 -15.8472
-15.0458 -3.3839 8.56472
-0.592275 15.1236 -4.44704
1.39418 3.92502 -3.37313
-15.2411 -1.93597 -1.30474
-16.09 4.62096 2.70236
2.39691 -5.87459 -12.8594
-4.98568 -0.854333 14.0185
-5.24895 17.8058 4.84405
1.17921 2.22776 -23.5674
-5.05539 -7.83316 9.20575
-7.41748 9.93168 -11.5975
-2.68406 26.4962 -4.00377
-7.79225 12.6988 15.9109
-1.30914 -15.3237 -5.65411
2.19913 -1.71171 -1.1635
-4.2844 16.5668 9.03341
0.918164 5.80242 -17.9415
-4.1023 -8.21123 10.2769
0.981437 -4.48331 -20.5816
-8.75645 -14.6139 4.71521
2.18841 -11.7585 -5.30205
-2.66415 26.3248 -3.96424
2.79026 -7.26146 4.22549
2.54665 -5.38422 -6.94119
-4.94048 24.1804 -2.125
-4.48232 28.6667 -9.07706
1.76001 0.641866 1.47438
-10.6412 15.3303 -3.19287
3.26888 -11.8582 -6.63838
-0.631869 -16.584 2.84388
-9.04059 9.95769 -15.1844
-11.4971 3.4886 -25.448
-11.0924 -9.36499 -5.29596
2.32051 -11.9102 -9.86118
-3.06754 6.00136 -24.7463
-13.423 0.114463 17.0511
-5.5278 6.41032 -24.274
-8.9465 0.533434 16.8815
-3.65482 -14.2178 -7.1168
0.142822 9.10284 -22.3348
0.96702 -2.95963 -17.3742
-5.1438 24.715 -1.31277
1.28168 3.98936 -7.97244
-8.72727 -9.14714 11.3864
-0.452072 -0.905067 13.296
1.8313 -6.89239 -1.43946
-8.3863 4.86849 -22.0195
0.189671 14.5725 4.9785
-9.80338 -4.38484 -18.6388
-13.169 -8.81516 -1.89947
3.13482 -10.9545 -2.32313
-12.9288 -2.21916 14.1751
-4.42534 -18.1178 -1.11849
0.674896 -14.1839 3.75808
-1.47624 11.3393 -15.5417
0.0665565 -15.5968 3.53915
-11.5484 -3.0007 -17.6529
3.32983 -12.0742 -9.03606
-2.63704 -8.43482 5.85906
1.01246 -11.0598 -11.6274
2.74263 -10.5378 3.44277
-6.49287 6.93332 -23.9468
1.66126 0.127807 -17.3722
-8.54959 9.19394 -5.46634
0.16518 19.6336 -4.41453
-13.8245 -7.67261 11.5793
-6.1352 8.24541 -21.6243
0.88445 9.7191 3.3703
2.33844 -7.47495 -11.7439
3.37161 -12.337 -7.72967
-15.4418 -3.81754 6.88134
1.69125 -8.80806 2.9433
-6.53247 8.82967 -10.0657
-6.15324 9.06494 -7.95867
-15.3785 0.0647832 15.4387
-1.36751 -12.8901 -2.53205
-8.00222 -3.77607 -19.6304
-0.598537 7.80304 2.50339
-0.356267 -7.23883 3.15074
-3.24689 17.7526 7.75075
-0.176783 -8.25317 4.15618
-13.2585 -1.60752 -2.59179
1.04147 4.26712 -19.6961
-5.39691 -2.89056 15.193
-11.0558 -6.53461 13.5133
-2.23538 22.4564 1.9041
-13.1077 7.60412 -16.2644
1.52669 -16.0383 1.0303
-1.9023 11.1707 -7.17722
-11.0751 3.97931 -25.1556
0.167272 14.9113 6.18372
2.35591 -3.89818 6.56067
2.77079 -6.40726 8.01375
1.83869 -0.0888226 0.146906
-0.500188 -4.53567 12.8294
-0.489958 -1.06056 9.27285
0.273617 -9.28633 7.61892
-1.83864 6.14781 18.3566
-4.30579 2.02554 -15.2598
-0.616163 14.8861 -4.59069
-1.65114 12.0191 -13.7893
-6.44732 21.9557 0.339368
-2.91645 5.77343 18.8831
-5.541 11.2327 19.1401
-8.24478 -6.24052 13.2639
1.90587 -0.918265 -1.04887
-10.2824 -3.91127 15.0462
0.430499 12.3693 -3.43954
-8.01942 8.30915 -22.888
-15.2181 15.1295 -2.81822
-5.14535 5.64985 -23.0025
-3.55011 1.80678 -15.9417
-1.55284 6.1225 18.2877
-8.80682 19.644 4.97535
1.24538 3.8513 3.9538
0.759656 -9.61922 -13.2085
1.90595 -0.628222 -3.01571
-7.34173 16.9627 9.26295
-5.6207 -6.77121 -18.8358
-2.40784 8.48403 -17.0957
0.318895 -3.29728 -21.738
-3.19079 22.9889 -7.79115
-5.24249 12.7209 14.1852
0.742704 9.5158 -5.96113
-3.07879 7.90188 7.74088
2.72597 -10.6758 -1.28942
-0.295278 -10.998 -12.0411
1.25196 -0.219482 -17.2514
-6.70583 12.6845 -5.86206
-1.39122 25.1781 -1.43847
-15.8166 4.36483 2.97932
-4.32657 -7.97715 4.44058
2.19484 -7.26878 -11.6801
-6.02118 16.4069 10.4851
-14.4252 -11.1915 8.88049
-0.862702 15.4112 -4.31217
1.65872 1.45858 -2.29123
-4.86626 10.7053 13.4942
-14.0648 0.907819 -16.0967
-6.26779 18.5219 5.60512
-2.61118 23.2381 1.01499
0.0876579 1.38374 -17.2413
2.13701 -2.48518 -2.99497
0.42288 13.2001 -1.32989
-6.51964 -13.8285 -4.90763
-9.8036 -6.37561 13.1432
-3.15628 0.456115 14.9505
-15.9214 -0.124314 4.61141
-11.4962 10.8953 -5.5863
1.72998 -7.96485 -0.0328017
-2.31701 11.2132 -15.3887
-0.80035 -1.3869 13.7391
-13.8974 8.57961 -16.294
1.28529 3.73603 -15.1184
1.51994 -9.81735 1.5747
0.426845 -4.11253 -21.3091
1.49973 3.04785 1.83277
-13.4301 -3.27331 15.0304
-5.58417 13.7683 12.1695
-0.182425 17.9013 2.34583
-7.32532 10.2394 -12.3161
3.30645 -10.7288 -4.99413
-3.06095 22.7151 1.47603
0.730496 9.10603 -7.51532
-15.0736 10.1151 3.92831
-11.5157 10.2535 -12.9617
-14.1604 -6.26505 12.6768
0.946934 8.30087 3.97073
-1.60107 -6.87142 5.79265
-5.08512 25.9632 -5.49279
-7.23203 21.1219 1.24522
-3.07727 23.7551 -6.91713
-2.95946 11.7161 -6.65121
-13.4507 -2.76268 -0.281112
-1.94718 22.1722 2.60806
0.286414 -9.92786 -12.9639
-7.47319 -4.49781 -10.4755
2.723 -7.16429 -4.78964
-0.742244 9.3581 -22.881
-7.16216 10.0952 20.152
-10.189 10.4781 -5.11659
-2.93125 11.079 4.71266
-3.62328 -1.43399 -21.4076
-12.3937 9.81281 -12.5052
1.89414 -10.7763 -11.8824
-0.0396829 17.077 5.69331
-6.77394 1.49259 17.1172
-4.95582 24.3858 -4.72674
-3.32143 -18.1785 2.11034
-0.238456 16.9246 0.78721
-0.992916 3.14363 14.5159
-8.21606 21.4358 1.38854
-4.00268 7.35277 -17.2886
2.1154 -2.85719 -4.04739
-9.57918 1.16958 -26.2548
0.81752 7.50903 -10.7768
-0.817257 15.692 -2.71608
-12.8175 -7.15277 12.787
-13.3503 -6.17975 13.2335
0.3619 1.5675 5.47541
-8.59122 -6.77963 -15.6458
-2.18975 10.8104 -7.48219
-5.25009 24.743 -2.47667
-4.45783 24.6047 -6.07871
1.70649 0.956456 -3.81549
-9.81949 6.23936 -17.5728
-2.8033 14.6644 -3.58957
-1.05314 -7.86473 -10.2087
-3.32396 -8.26235 3.25188
-15.0416 -3.96845 3.91331
-1.53505 14.6436 -4.73585
-8.94113 5.17171 19.8594
-1.90904 -12.3988 -10.0348
-15.7202 -1.14507 5.91494
-11.2019 10.2959 -5.37856
-6.65476 -9.14226 9.2505
0.937768 -6.32689 -8.33026
1.88942 -4.11578 -15.3242
-0.733565 8.30365 -21.4326
-11.6885 -10.0304 -0.782643
-2.68576 -3.82452 -10.5274
2.52265 -4.19741 10.592
2.54485 -6.56026 8.57187
-1.61799 1.35333 5.84065
-0.0922787 3.04903 -25.9554
-9.25715 9.71217 -15.3685
-4.76049 22.9137 -3.36624
0.0488541 22.7682 -3.96182
0.796143 -1.23915 -19.2774
-3.33077 -3.88195 13.4592
-6.30823 0.969681 -27.923
0.023933 15.8241 2.19526
-0.889591 -11.8937 -2.92088
1.52494 -12.062 -4.35471
-4.20717 13.0185 -5.64295
-6.39667 -10.6455 7.60589
-5.73646 24.8874 -2.2549
-12.8392 8.56881 -15.8042
-9.1313 8.59021 -8.01976
-3.16619 9.50718 3.93033
-3.08279 13.1401 -5.64355
-8.51623 1.97036 -26.898
-1.1489 20.9997 1.26188
-0.411951 18.8362 -0.291367
-13.8605 -10.0025 9.46744
0.0461906 -5.08469 4.29259
0.70893 -4.64134 12.6597
1.66616 0.828518 -6.688
-0.624183 -12.772 0.622577
-16.956 6.97462 -8.39964
2.64418 -7.65901 -12.9163
2.00911 -1.10762 -2.79091
-1.4318 -14.4058 -6.91858
-4.80385 1.7794 -27.3548
-3.31898 1.44861 -22.594
-1.08892 11.9116 -14.9861
-1.46902 -15.8936 8.3541
-4.10427 10.6566 -15.583
2.51542 -5.81057 9.03161
0.750425 -6.36549 -17.7793
1.40736 2.0821 -8.01817
-6.3902 -9.24729 9.55
-4.38002 16.9263 4.81775
-1.08586 -1.60184 13.3372
0.13008 14.7379 2.54333
-0.542178 -8.14073 3.75677
-0.930777 24.9468 -0.500381
-5.16543 25.3742 -7.8351
-9.31527 -1.20549 14.6353
-2.66523 -7.49663 -12.8239
-6.61556 11.8477 -14.4571
-13.8372 6.14122 -17.0078
2.95426 -11.9437 5.18318
-8.93042 12.9769 -5.13966
-10.8626 9.54091 -5.33186
1.66825 0.588942 -20.2483
-8.59963 -8.6717 10.1251
-1.071 0.924157 -20.1415
-0.729489 -4.63765 12.8548
-3.36145 -8.32045 -13.5251
-14.8969 -7.35073 10.9313
-2.81185 -3.09788 -21.8265
-3.97687 -2.09073 -26.1605
-1.01861 14.1136 -4.17577
-14.0003 8.95879 -7.07046
1.87962 3.55183 15.0333
-0.618164 -13.0578 1.19599
-3.53987 -13.4939 4.88634
-4.82791 23.2778 -3.03854
0.317186 3.42002 4.15752
-10.5626 5.32097 -22.7341
-7.93587 -4.72605 14.1791
1.28761 3.1088 5.08399
-1.36182 5.03555 18.1284
2.7843 -7.96619 -7.27673
2.45536 -12.263 1.47742
-15.6795 0.0584772 3.59917
-7.66883 8.18691 -8.56535
-15.1671 -5.30255 13.3273
-6.63836 12.7936 -5.83186
-2.76408 -14.702 4.23192
-3.3061 22.2555 2.01934
-2.8584 -7.85901 6.02223
-5.77045 17.6768 6.94092
-9.70013 -3.96349 -18.9377
-7.45857 9.47109 -5.07351
-1.45843 -7.29695 2.98535
1.46845 -16.6178 1.7859
-3.09129 -8.51291 3.26852
-6.48761 9.94871 -11.8676
-4.42558 0.288994 15.7632
-6.63062 7.4154 21.1674
-16.9689 8.17404 1.46474
0.364714 13.4117 2.70677
-7.61766 -13.2889 -6.03009
1.27834 3.81446 -2.7509
0.54395 7.99361 -21.2326
0.707851 5.89353 -24.8297
-4.251 -10.6493 -13.104
0.0517324 22.6422 -8.54554
2.60774 -7.06998 10.8077
-2.88737 9.64204 3.71993
-6.09518 18.3953 7.21694
-1.87946 7.22334 -24.0527
2.78288 -8.71558 -9.59507
