ply
format ascii 1.0
comment Created by Open3D
element vertex 1899
property double x
property double y
property double z
end_header
-12.0162 -8.62481 0.259977
-24.3359 5.68157 2.15139
4.05569 10.5732 3.20827
-1.17907 19.2546 7.15028
-19.4652 14.1513 8.38565
-20.5184 -16.0008 2.80993
11.4074 3.02138 16.6327
10.7056 1.53099 1.36911
3.36804 -15.4977 7.07311
4.94647 6.62703 0.836942
-0.805351 0.634008 0.582535
-2.28102 -10.6849 4.07488
-14.0556 -11.6361 0.244973
-9.79833 16.596 0.32133
-20.442 -6.49434 14.9008
-13.9933 0.561825 11.0468
0.964815 16.3699 4.81579
-7.53859 4.86572 0.327492
-16.2989 4.32231 4.61202
-15.5 -2.47433 9.86429
5.62833 18.3994 12.6427
-19.6273 -7.87616 15.378
-11.8332 -11.7881 4.06041
4.5675 -1.48868 6.23751
-12.5873 -14.3574 13.3705
-16.0564 3.09612 6.17587
-19.2069 -8.07664 8.63094
-11.7721 -7.93076 0.316591
-14.5976 2.29957 12.0271
-22.5669 12.5762 5.85109
-14.6851 -0.566021 10.8777
-5.61112 -11.4029 9.10349
-14.0662 -1.62832 10.6131
-22.9264 -13.1235 4.28861
-6.66987 6.40503 2.24768
10.1379 6.17748 12.8429
-6.25947 1.12806 0.42282
9.22523 7.13313 6.93314
-4.3764 -16.8316 0.616788
-22.8013 -12.8681 1.35572
-5.24326 -15.2942 5.37553
4.44406 -15.1111 6.37455
6.16002 12.5835 3.38573
4.75217 -5.86729 1.70674
12.7729 -8.63697 11.1077
-2.78469 -2.13478 0.51504
-2.06212 -3.63175 0.508107
-10.9303 -18.0465 12.0843
-6.35236 2.83129 0.26383
-0.781624 3.89235 2.87961
-5.98409 4.85116 17.0374
6.83523 11.2231 11.1056
-10.3182 16.9817 0.903203
8.00478 9.25284 13.1011
-16.5836 15.2486 0.195184
4.28694 5.79908 4.39341
-21.946 -11.8845 0.770136
3.25153 -8.03865 1.17465
6.40416 16.1808 14.3772
-5.45394 -13.2336 0.92692
-8.83215 1.32007 0.5766
4.18262 -0.585915 2.12939
-8.56191 -18.8628 0.866314
-20.0153 -14.9092 6.38805
-11.9995 -1.13921 0.258431
-0.4639 -16.7004 7.07089
-11.288 15.4032 6.87551
11.0707 -6.33969 4.81842
6.10417 0.206511 2.84201
-5.55733 18.9406 8.33672
-6.56663 -5.89317 0.424861
-11.2764 -11.9698 16.3231
4.28343 -5.88544 16.163
-17.0964 -20.1268 5.79073
2.78592 12.622 3.68237
-2.3714 3.47314 2.71907
6.38692 15.8586 12.6321
-9.38636 -0.315266 17.9783
4.54742 7.50704 1.67059
-22.0309 -11.7382 7.58814
-13.6152 0.302667 7.87703
-13.9532 0.515593 9.4741
10.453 1.14738 13.4089
0.694116 3.38409 0.603204
-26.2341 11.2839 4.87651
0.684954 17.5977 4.80715
-21.9108 -16.7398 1.88636
4.39308 16.6519 4.18634
-14.4255 -1.34976 14.3595
-15.092 -16.8292 4.91288
4.71587 5.35986 0.70555
7.04139 3.32748 0.741799
-10.552 -10.6579 0.290699
-20.5253 -4.69446 10.4357
9.88344 7.79107 7.89448
6.03142 0.214112 3.03512
-20.7414 -13.0971 1.06893
6.8849 -7.90851 1.18485
-13.5258 -13.572 3.70291
6.02159 -7.88578 1.19474
5.11987 18.4467 3.59152
7.59072 10.2094 10.4911
-15.6476 2.59675 2.60182
4.98913 -10.1619 0.901889
-2.98966 4.0425 0.817535
-12.5465 -1.40357 0.195956
9.76627 6.02602 5.73945
-19.3043 13.91 4.88752
-13.2541 -13.6293 0.252113
7.22894 -0.333092 0.766142
-13.4496 -19.1442 1.89467
-15.8431 3.62683 1.88642
10.6747 4.02877 16.4896
-9.06266 -5.37736 0.384784
-14.3841 1.13155 12.5515
-18.6555 12.2504 4.09153
-21.5923 11.0505 1.86649
10.4702 -7.37447 0.869264
-0.824583 1.11706 17.9298
-10.7775 -19.6708 5.75649
-10.3432 2.6114 0.263695
-20.7301 8.55884 -0.858757
4.13994 10.5788 2.63137
1.88112 21.4689 8.80799
6.51605 15.5951 9.86339
-19.113 -10.773 10.0367
8.36748 0.427982 0.739751
-19.1993 13.6042 6.13057
11.4827 2.89501 12.4006
-9.02036 9.03263 0.274785
1.65712 -15.5481 7.65157
-6.27114 3.87111 0.359486
-21.9816 13.9383 4.4548
-19.111 13.6014 3.10662
7.39724 8.80296 8.86779
4.40058 1.90316 17.9691
-11.7173 -20.2919 5.73762
6.94206 5.84911 0.729144
-19.6312 -3.96114 11.4394
1.63855 16.3581 3.82936
-18.7027 -3.68332 11.5993
-12.5901 16.4174 8.57411
-26.5447 7.10365 2.67402
-7.57419 -0.332276 17.9657
0.733946 17.5547 11.8348
-19.2136 -8.07701 9.56671
-1.73822 -17.2244 5.18685
3.97454 -15.3238 5.9141
-6.47886 3.62908 0.367324
5.76516 18.3503 10.3747
1.23291 0.0768571 17.8019
-20.4473 -4.25722 3.80085
11.1788 -4.59292 1.34346
-16.9208 6.20926 14.6149
-16.5928 4.87493 17.6431
2.18394 -7.16837 16.6254
-8.03436 -14.3083 2.14976
-8.28926 18.0619 5.66428
-2.17111 -10.5227 3.47929
-13.0576 -14.4022 0.239406
-19.5977 -7.64244 0.340806
10.1157 0.0141459 6.29895
-10.4831 4.00547 0.228397
9.61813 9.39601 12.8863
-25.7141 11.3124 1.10374
-4.29888 -15.1789 6.36507
5.02549 13.5528 3.44588
-3.26352 -17.7341 7.3403
9.91622 1.76497 15.1193
-2.77928 -1.97205 16.651
-21.3694 11.1704 0.127425
7.53274 10.1673 15.6276
-8.74037 -19.4892 8.176
11.307 -4.82536 7.72149
11.0049 1.61969 18.3834
-11.3343 6.79555 0.255653
-11.0616 -15.3803 1.05131
-9.25735 -19.729 7.86711
-12.8155 -2.44609 0.254382
-6.30376 8.64231 4.46308
8.68852 0.338542 0.787319
-10.5099 17.0752 1.32411
-13.2135 14.8799 2.14617
4.65682 22.3966 7.09236
-18.5269 11.3461 9.11534
-20.4007 -4.13937 16.8981
5.46995 21.1931 10.5072
-8.6026 13.5608 4.46141
1.68685 4.15436 18.2538
-11.7969 6.87066 0.228199
-21.2403 -14.6434 2.13264
6.99742 -2.40484 1.87084
13.0163 -9.3376 10.1622
5.19547 6.05455 1.85848
3.21751 0.869193 0.671078
-6.03524 4.61013 3.86791
-20.7685 -15.9714 9.59902
-4.84538 19.1244 6.38325
-13.0325 -12.6363 16.359
-19.9773 -10.9978 13.2819
7.35882 12.1025 6.30132
-15.7539 3.31903 1.1816
-18.7134 13.317 0.690873
7.72197 9.58572 18.4455
9.01262 -8.17086 5.8868
-9.32082 11.8816 0.280561
7.94581 10.3472 1.86527
-2.79366 -17.1247 3.88875
11.0637 -6.33246 8.05821
-16.7671 9.88393 3.62367
-6.27453 -14.9039 0.352571
-11.1182 8.81562 0.236413
-6.15608 7.92184 4.49423
0.916423 21.377 7.3591
-10.7247 15.8875 6.15238
-14.2086 2.41973 10.723
9.61965 7.80799 7.22106
-11.2665 -9.16959 0.234437
-19.9958 -4.13924 2.38488
-7.5996 -13.9164 12.5665
-1.92442 -11.0128 2.39398
-11.187 -12.9339 3.20018
-20.4939 -4.6637 12.3885
12.7428 -10.0786 4.18879
-25.2015 11.5743 0.12446
-22.0538 -16.3367 5.56605
-18.754 -3.74568 5.11405
-1.52499 15.8375 5.11123
-5.78101 5.09852 17.8955
-15.5982 5.3645 5.37537
-2.52225 3.62331 0.488263
-8.82362 17.7944 6.64275
-20.7506 -4.23465 17.8386
-11.299 -14.3556 1.11061
0.444304 14.867 4.90036
-12.946 15.2866 6.38273
11.8081 -6.05234 7.58702
4.6272 -12.6983 2.64608
-2.53587 -5.61645 0.461715
-26.001 9.12267 3.13995
-12.7769 13.2495 1.2483
0.956435 -3.37328 0.579388
-13.4025 -20.7632 6.99539
-21.6383 -17.9598 9.59905
1.3604 15.3878 4.7587
-19.1481 -8.1643 11.4116
-15.8114 10.3815 0.164728
-19.1297 -8.22868 8.10669
8.70984 -6.64783 0.774037
-16.3096 15.4226 3.34094
-19.6556 -14.987 9.05239
5.49937 -12.1462 6.09821
3.70474 -15.3616 0.580387
-17.1707 9.98352 7.19807
12.4463 -9.8199 2.6769
-19.1554 -3.77634 15.5739
10.0999 1.47486 8.40238
-10.9421 16.635 1.29834
-16.0709 2.87739 8.87718
-16.9344 -16.9926 5.78419
-16.4385 4.22935 8.67954
-4.73075 16.3842 6.18143
-8.7952 3.05509 0.571472
8.35003 -8.52763 5.72266
6.74497 6.29901 0.735012
10.9295 -5.67835 3.59393
5.09425 -15.0229 7.37634
-5.2736 -15.5691 3.41335
10.8148 3.46785 2.63744
-9.77711 17.5371 8.34195
-22.5602 -15.3248 9.85351
-15.4561 1.88044 3.88112
-15.4792 6.62707 1.09284
-16.4212 4.71913 15.1549
13.8749 -11.6968 7.33947
10.0947 5.76701 4.40791
6.86321 -3.0964 4.39355
-22.9759 -12.6471 11.6896
-22.0271 13.8575 3.71421
3.82058 11.6268 3.23225
-18.5587 -10.56 7.85054
10.1108 2.02529 4.88104
-1.54339 3.6678 2.87839
-12.8002 2.34573 0.245037
8.29786 9.52051 17.145
-16.6478 -2.71514 13.0778
9.81213 1.30902 17.1856
-15.7797 10.6506 0.179146
-18.1699 14.7007 2.36256
-13.8325 1.7425 8.49518
3.73128 5.08225 17.8734
6.13638 1.58621 0.745446
-1.96187 -17.0189 0.632615
-9.18132 17.7494 8.57596
3.05931 5.50214 3.09596
3.20316 -0.125228 0.684014
4.71321 13.8254 3.96567
-13.4437 -13.248 14.4805
-15.5876 2.17736 15.5805
9.18398 2.80883 18.3085
11.5903 -5.51163 6.0105
-11.217 -2.12053 0.27986
-17.8927 13.7829 1.34124
-13.6268 1.96636 9.14931
-19.7998 -19.3032 3.40297
-8.55154 3.61355 0.45955
-18.9359 -9.16294 8.55968
9.07314 4.90456 17.6556
-21.5663 -6.62492 15.5436
-5.40068 -11.2841 6.83936
-7.53655 -18.8737 4.88147
6.69693 -10.8729 5.47885
-1.78296 17.8275 6.45466
-13.7141 15.0981 5.83831
10.9859 -3.399 12.1086
-7.49975 18.3346 8.32461
-19.0011 13.1181 4.8704
-5.30823 5.6278 17.0478
-2.88089 -0.563302 0.4965
-17.4474 14.9245 5.61357
-4.54584 -4.64182 0.459686
-20.5182 -15.3418 6.88548
-18.5764 14.5452 1.59824
0.195424 -8.68806 15.1185
-5.22265 -10.9294 6.87778
1.21423 -10.1333 0.544679
-0.792672 14.612 4.8102
-20.2808 -5.33981 10.8593
11.0651 -3.10706 5.3924
3.71466 -1.38487 0.674838
-5.01545 5.61054 17.1034
9.75244 8.36383 16.2308
-20.2876 10.6148 -0.672346
-15.1172 15.6499 0.116591
-20.2595 -11.3774 0.599975
11.6064 -5.30599 2.1595
-23.0548 13.1889 4.88186
-4.48124 -12.1996 0.89189
-17.8963 14.7182 1.04307
6.57501 0.494029 3.20394
-4.82859 -17.6454 1.11429
-19.2311 -18.1543 0.670361
-22.6519 -14.4848 1.83953
7.99931 7.8401 0.827313
9.6741 6.76673 2.90363
7.26558 13.5946 8.37331
-5.87841 3.06211 16.7626
-21.6465 -17.9618 12.1023
-12.9978 -14.9674 0.90979
9.80957 4.88413 17.1168
-18.8162 14.2943 0.215563
10.585 -1.28675 7.91136
-20.0048 -6.34636 1.20772
10.0193 7.87515 11.3885
-17.2599 -16.5759 3.57787
0.205897 -8.13848 0.532826
-12.8003 -11.3734 1.39135
2.86297 11.5527 4.5274
11.3604 -4.19511 7.58476
-11.0374 -0.148372 0.288818
-10.7692 -8.13495 0.29446
-19.0202 -18.4872 1.02729
4.35488 -9.5811 1.17928
7.72122 -10.8412 7.12358
11.1969 -3.41203 3.61532
-3.4187 17.0369 6.25382
6.7113 13.1431 2.36674
9.47066 5.57002 0.816821
1.93776 20.5103 4.00581
-4.71124 2.92537 4.89321
-5.21542 2.59518 7.04046
4.84377 -13.4474 1.65692
-5.33089 18.9804 5.88898
-11.8263 -16.6445 12.6464
0.356796 20.9666 7.20226
-18.3543 7.56794 -0.41736
7.09888 10.9167 6.16075
-20.1978 -5.36654 14.8621
-12.7508 -19.1761 1.08387
-9.48958 -8.55762 0.313839
9.16413 -8.31385 6.41709
7.83838 8.75809 4.43781
12.9783 -6.59779 3.61576
-7.54035 13.773 5.96519
-14.2756 8.63984 0.202507
10.0685 6.79498 12.3744
-16.0351 -11.1415 0.200269
-22.1095 13.0176 1.51582
-2.04836 4.14435 4.90516
13.9589 -12.1277 5.86666
-9.67372 16.2273 7.23076
6.55402 16.1226 7.18453
2.6612 14.8131 3.69489
-14.3625 -1.16786 8.60146
-23.1883 11.3601 5.35473
4.8573 -0.594834 2.66146
-13.5952 14.3137 0.202641
-9.79818 -3.143 0.309289
-14.5392 2.39711 6.57908
11.0644 -3.31273 7.86301
11.3153 -6.23948 6.03572
0.185697 20.9335 4.88797
-1.74254 -1.90949 16.6291
-6.9356 -16.0688 5.90107
10.6975 1.12389 10.8802
-9.54323 1.41826 0.410486
-12.9687 -13.1673 3.7902
-21.7613 -15.3501 0.592789
-8.63074 -19.5268 7.10815
3.67371 10.6327 17.8194
12.9434 -9.19734 10.7885
-20.8092 -14.1164 0.202113
-5.72072 4.21432 1.26303
-24.2335 11.3334 4.30355
9.21429 7.52682 1.66608
9.78949 1.42725 12.8663
-6.35297 -18.7756 7.37545
-14.2478 13.8607 0.141263
-2.20239 -2.98375 0.495654
-12.7323 -11.6196 2.15062
-11.7834 -18.8811 9.58322
9.22785 -6.11688 0.694804
-2.24583 -13.4474 3.69829
5.67553 -10.9007 4.87118
-5.01858 -6.66362 0.433383
3.78222 -6.98763 16.4435
-3.09104 -11.6705 0.865551
-2.85876 -17.6373 6.30239
-6.79196 -7.13411 0.454437
-0.0540549 19.5346 4.40346
-17.0202 -22.1548 7.42379
4.87194 12.0328 3.23296
-4.51765 1.60936 0.45549
-20.7032 -5.89896 17.2725
-27.3403 12.1768 4.88075
-13.6469 0.169961 8.60706
-5.30585 -3.40325 0.452854
-9.00127 -12.4211 0.327106
-2.27536 -17.455 4.36586
8.5809 7.84774 5.58341
-21.9112 -16.6061 14.1014
-6.87793 -17.8956 1.63769
-13.527 -12.2893 15.2575
-7.23009 -17.1343 4.12313
-6.05367 -18.1205 2.35779
-7.81396 -18.563 5.87011
6.13809 17.0221 9.80452
5.06395 -2.0844 7.52534
-17.1615 13.6333 0.999305
-4.78232 -13.1637 0.404492
4.9031 7.27319 0.718367
-8.05769 -0.853409 0.304111
5.27453 -0.117935 3.59796
2.22847 -15.9352 5.37058
-5.0024 -0.421382 0.524157
-16.1608 4.25536 9.82421
4.30562 -7.36171 15.9149
-11.8084 -7.37217 0.238419
-23.3066 10.5694 2.91026
-15.9191 4.05116 2.63724
-16.6963 10.1973 2.66864
-15.8767 4.12521 1.61436
-11.0434 14.0761 4.45104
13.6923 -11.0971 6.09058
-8.54528 1.66433 0.568333
3.52717 20.8077 3.81427
-5.52484 5.38167 17.0391
-3.04503 11.1372 4.57157
3.89818 16.2174 4.4141
1.7164 -13.8736 0.48958
-6.10817 2.33693 16.7428
-18.9211 12.691 7.11333
-14.0394 2.76314 7.28413
6.17911 -10.3836 0.87424
-19.4902 -7.38122 10.124
-15.7941 14.3493 0.127248
-1.03342 -16.8719 0.673164
5.26685 18.3497 6.05129
-9.60453 4.10289 0.253568
-5.26781 8.10002 1.30634
-10.0325 -5.59775 0.342996
10.7339 -2.6836 12.8178
-9.06257 -7.63096 0.299366
8.67796 4.57783 0.781662
7.57538 -8.98304 5.38325
9.55335 2.07526 13.8672
-20.0177 -10.7341 14.7808
-16.0458 -12.1348 0.20935
-18.9282 12.9139 4.60501
3.82288 -9.10155 1.42736
-10.0638 14.3417 0.296722
-20.817 -18.6436 0.453123
-13.2387 14.4807 5.73967
-14.1316 -1.68739 12.6246
-4.54835 5.35363 16.8754
-22.1271 -16.2165 4.40859
12.3113 -7.29613 5.60156
6.13288 12.8 1.3726
-6.05606 -12.1611 0.705203
-22.4859 -15.0932 3.41048
-6.60364 -18.4225 3.39263
-14.345 -2.29561 7.13826
-6.5782 6.59334 2.34938
12.3699 -10.0803 8.09749
-8.10511 1.31532 0.473738
6.33097 16.6681 6.70434
-1.92448 -17.2565 7.99039
-10.0608 9.93658 0.238173
-17.9956 -12.9866 0.267213
10.2867 -1.3834 4.13197
-18.5516 -3.67115 3.37783
5.71938 -11.2237 2.02728
-11.8064 7.65584 0.255311
5.86046 15.7999 4.88718
-23.7311 13.5123 -0.955511
5.72077 -10.6231 5.54049
3.89318 -15.2867 1.63415
-14.15 -17.1976 1.80509
2.78856 -6.82222 1.5248
-4.77582 -16.6285 0.402092
12.0959 -6.84914 13.0589
6.95051 15.0682 7.06641
-20.6142 -20.4036 2.9027
-0.643016 0.673562 18.3576
-6.28334 9.11309 4.46223
-18.9735 -13.1606 0.148413
-15.2489 5.89022 1.15707
6.79509 13.1859 0.694251
-17.6791 8.66878 11.0874
1.3929 6.92155 4.98435
-14.7641 15.9094 5.87835
-12.0596 5.61603 0.241275
5.23296 19.3537 6.0847
5.81437 18.1178 9.92903
11.8501 3.74692 11.82
1.48226 -8.65275 0.552351
-15.6588 2.25577 12.8408
-11.5611 11.1053 0.224823
-14.0829 -0.073775 6.90859
2.60417 -6.55375 0.604124
9.5019 3.3432 18.4078
-6.25189 -0.606331 0.397782
12.6042 -9.61915 3.41079
-20.4583 -4.67537 12.6325
-6.30343 -8.4119 0.42302
-24.4724 8.66603 0.419675
-20.916 -19.2889 0.246107
-5.92042 5.30521 15.4138
12.0216 -7.92696 8.6227
10.199 0.876054 17.109
-10.5872 17.1719 6.64414
-4.6417 16.3185 6.60662
-7.75964 12.0744 1.53035
-7.60222 -13.58 5.72308
-18.4515 11.3752 6.36248
-12.5605 13.8718 2.15026
10.1437 2.3625 15.6566
-12.7548 -17.7115 10.7892
-9.74782 7.8733 0.219325
-15.6832 2.67764 2.67167
-13.7152 0.377888 8.62102
-11.1114 -4.2383 0.231733
-8.74851 -11.795 14.5214
-13.4907 -12.1708 16.1586
-7.05338 5.364 0.346703
0.537881 -9.19717 14.9865
6.77217 -3.20569 4.15936
-3.28331 18.423 6.33234
-2.35534 1.17726 0.512821
-5.28012 4.0299 1.35798
-4.0181 -15.1808 2.62773
-13.2971 -20.6436 2.12851
-6.06978 4.61894 3.20233
-20.02 -19.5256 3.25693
-4.74788 -2.94678 17.8969
-13.2852 -1.36395 0.232202
-22.7744 16.9477 -1.12764
-19.796 -4.1429 10.1276
-6.92731 7.51532 2.63955
10.9613 4.61171 16.4615
9.82785 2.24483 4.88862
-20.6565 -21.0097 7.13442
-15.359 4.71939 3.36375
-18.4972 -10.6119 0.349288
2.71095 4.83598 0.661288
10.2083 6.22634 12.1532
5.61989 -4.89278 2.22514
-0.335063 -16.8021 3.13338
-9.73323 -11.4881 16.215
11.042 -7.31921 2.85626
-16.2927 13.1443 0.100305
-18.4958 11.0874 10.5991
-18.3045 8.33751 -0.354419
1.24074 -16.2453 2.59127
-19.09 -12.62 0.208103
-9.11605 -9.10431 0.358378
10.2476 0.662464 18.3753
6.67669 3.6684 0.726844
9.65201 6.8353 0.891159
1.85736 -16.0228 6.21478
-1.37436 8.02489 4.72475
5.0585 -14.364 2.34069
-4.30241 19.3725 7.58814
-3.2875 3.37208 6.24901
-2.96361 17.6303 6.17124
6.16768 6.38022 0.738634
-6.3223 9.05215 0.318826
6.44503 16.2969 6.23876
-3.10802 3.43321 6.24949
13.2428 -7.11849 3.87463
-6.81706 -16.7211 6.11536
-26.6147 11.0617 4.67178
5.89357 -14.7759 4.5905
-17.1111 8.39969 9.68712
6.73534 13.1103 2.85077
6.73771 11.2989 14.1347
5.53048 16.7066 3.87241
-2.28103 -17.4514 6.455
5.88118 9.53968 0.765336
12.2587 -9.90249 2.8759
6.7643 10.5426 5.89447
-20.7075 -19.8455 0.232552
5.96494 1.12759 0.756468
6.3854 16.5247 7.54615
-19.0506 -3.95745 0.86455
-3.24669 -14.6286 3.12034
8.42836 9.0909 17.5334
-3.7817 -12.8946 1.04032
10.3913 -1.16887 3.777
12.5382 -9.57248 2.84722
13.1344 -7.30809 3.37086
12.4248 -10.6191 3.92695
6.07916 -1.02606 3.92296
-20.658 -5.81669 17.1012
6.60346 15.9135 8.99345
12.8192 -7.71827 4.37075
-1.25825 -10.7059 0.499604
-14.6129 -0.139607 0.615309
-24.3381 7.79232 0.521774
10.7677 4.14622 7.20528
-13.5431 -1.06689 0.250555
-13.3456 15.8022 2.20753
-12.7072 8.10379 0.25434
7.10381 11.4758 7.39559
3.57456 3.39998 18.5203
5.23059 18.2976 12.923
-4.2845 -0.158086 0.472954
-19.0178 14.5155 8.32451
-25.7405 12.114 1.02981
12.0831 -7.87516 12.7344
7.24714 14.1303 6.31587
-21.2968 -4.51859 18.0009
1.13882 0.10297 17.7054
-23.2278 -12.6538 1.33393
12.2905 -7.58385 10.6818
-3.51866 7.87691 4.80143
13.1463 -9.39026 4.6773
-16.1922 4.671 1.23662
-2.77949 -3.88456 0.481029
-7.29488 -15.8801 10.8055
-5.56053 -13.8914 0.613292
10.7113 5.12411 16.5263
11.0985 2.54579 5.71216
7.36007 13.0655 9.85645
-13.5325 -10.4043 0.287592
-4.38559 -16.8986 0.80154
-22.7679 -13.1519 5.84832
-21.7898 -11.6827 13.3996
-20.2407 -11.1199 13.1477
-20.6758 -20.8098 5.87903
-4.60051 -18.2247 7.66505
-20.826 -20.1445 4.62691
-4.53468 -15.6591 2.07272
-5.3687 -15.0874 1.15431
-17.3793 14.9744 5.39263
4.6779 -12.914 1.61615
-20.7237 -4.20786 9.82288
5.10387 -4.77872 1.72891
-0.0290759 2.11115 0.549764
9.02413 7.97941 4.61488
-29.356 10.4606 3.33236
-18.4126 12.5722 1.82533
-10.7721 17.2892 8.56525
-20.6808 -20.8084 6.36832
4.96557 19.3413 5.58887
6.74512 15.1284 8.63291
-19.5321 -14.6236 0.196118
-7.2849 4.07298 0.556309
6.68512 -5.34475 2.50315
8.74376 7.96464 3.12443
10.563 -1.54408 8.57602
9.21004 3.6191 0.907324
9.3375 9.60348 15.2996
-3.20597 -14.9285 3.85389
9.97379 7.55698 12.8252
3.29005 10.921 4.20148
-9.27286 -19.1355 4.35784
-19.0156 -4.64038 0.149073
-19.2029 -3.79246 15.853
-15.4548 -21.7497 6.84723
-0.775478 20.671 7.92726
10.0904 1.99225 3.78537
-15.9238 3.21105 15.1389
-5.37025 -10.577 6.14222
2.4201 -13.7049 11.7157
10.4884 2.4882 9.46276
10.7708 6.11985 15.1275
-22.5204 12.8752 1.42257
3.80362 0.912487 18.007
-20.5995 -15.1838 11.3951
-24.726 12.7789 0.809573
-18.5777 12.6227 2.13993
7.24332 -8.8746 1.01573
-6.5416 -17.1948 9.64315
1.22221 -10.597 14.3642
-19.4447 14.2544 8.11527
10.7877 -2.65268 10.8758
-15.1927 -15.7594 2.25582
-18.843 8.37024 -0.492633
10.1561 5.1286 16.8101
-6.87712 18.4766 6.4231
-17.6769 -22.5067 5.79966
8.23654 8.84664 0.801857
3.29395 -8.83357 1.01864
-14.5952 -15.9019 0.639888
-15.9398 5.47127 5.42898
-16.1264 4.83309 4.16852
-21.0346 -11.836 0.091031
1.47661 -15.5782 7.65876
-17.8499 10.5287 10.4148
12.8217 -7.73941 3.84236
-19.3235 -3.85659 15.1225
9.17854 9.64749 14.1066
-2.38138 17.9987 6.22892
4.36262 6.92063 2.19438
-13.0368 -12.403 0.260001
4.98432 -2.89768 0.679356
-7.91333 0.806135 0.237859
10.0991 1.26861 11.173
-16.0245 4.33358 1.60731
-0.0644944 -16.6959 4.37322
10.1874 5.34406 5.38012
-19.8068 14.2099 -0.344687
8.13903 5.71836 0.7324
-16.688 -15.7549 5.6618
5.19414 -7.9144 1.72501
-4.6243 -12.5557 0.532436
-10.1041 13.6145 0.176255
-21.2282 -15.8278 5.3522
10.5972 -6.16409 2.06635
-10.5109 -12.2353 16.2776
-5.76734 -18.1079 3.13206
0.225217 -15.6316 0.505398
-2.12511 18.1319 6.30823
3.45971 -10.8161 0.56753
-16.5416 -16.3205 3.61618
10.6374 -0.610365 2.29912
-0.0431765 15.8416 4.91661
-2.47866 -2.74247 15.6546
5.06837 -2.53271 4.32724
6.57765 15.187 12.1625
-10.3035 17.1076 2.6054
-11.0571 16.2937 6.02361
5.7819 17.3914 13.6463
-10.2885 16.5678 0.353302
-5.9619 3.12254 3.38931
6.68932 13.358 4.36796
-16.3043 4.80958 5.1481
-14.1096 -2.08035 14.846
1.68315 18.9092 4.50784
-10.6714 -17.8439 12.5348
8.48344 9.84908 0.811082
7.42461 13.5992 6.64786
-18.755 -9.89884 10.1509
-12.77 0.78836 0.239923
-9.02547 -1.17817 0.273755
5.65282 -1.8358 1.10232
-5.46342 -11.3575 6.61542
-8.24292 -18.7358 0.63037
1.36232 -13.2491 0.488837
-23.6596 11.6326 6.50487
-4.50845 -17.6568 3.87821
11.2249 -2.03537 12.1645
-19.0148 -3.97526 0.195002
-15.4237 1.71152 15.1619
6.87723 -3.09793 3.36775
-16.9908 -22.1166 7.58399
-10.3691 17.2893 7.90003
-15.219 8.1187 0.25272
-1.04367 20.5526 8.80226
-4.2875 3.35557 0.467154
-14.7879 3.62237 0.206657
-14.3893 -1.8408 16.6238
-22.7437 -13.4004 1.22037
6.90063 -9.38231 0.95269
-4.57392 19.3037 8.09921
-18.6824 -10.0968 4.96582
-2.84258 18.5206 5.86234
-5.81229 13.4457 5.31209
-13.0423 -3.88725 0.193221
4.17058 18.1548 4.03354
-2.00075 2.14393 0.519066
9.98444 -5.21607 0.832831
-17.1348 10.0036 6.82192
-17.1762 -3.24851 3.4093
-9.03661 0.650823 0.207626
-23.038 -14.1268 12.8144
3.71754 12.1364 3.22201
6.41393 -10.1511 2.13796
-2.2593 -17.1633 1.58722
10.2935 4.67216 1.11622
6.28135 16.3348 11.387
-24.2645 6.57253 -0.689472
-6.01389 6.62154 0.377
-12.8027 -6.13412 0.218058
-19.5074 -7.35295 8.39199
0.541198 19.4187 4.05882
-3.40008 -14.9963 0.423092
-15.2175 4.7556 1.63158
6.7228 14.6136 6.23494
7.10918 13.8103 10.3478
-1.54699 -9.14686 0.493247
-20.3865 -21.6649 6.15489
4.44108 12.306 17.4583
-13.5851 14.5801 0.178138
-17.5356 13.5333 3.16889
-3.13503 15.4496 5.81677
-11.2781 15.4075 0.324952
-17.7626 -4.889 0.149484
-11.5603 -16.1336 1.36379
11.3541 2.65433 7.65173
-6.1765 -16.7454 9.98203
-15.9783 5.57014 6.13557
-5.56169 -3.39802 0.445908
-1.35039 4.05712 1.65741
-3.54092 13.3573 4.65142
-12.5637 14.9143 0.28499
-3.28496 17.3443 6.20909
1.19629 3.07208 0.613585
-2.23962 -15.8469 0.454999
11.3347 -5.74434 8.83733
-12.5146 -8.37836 0.278213
-14.6732 -5.50327 0.235057
11.4695 -1.92232 10.2393
-13.872 -0.146739 9.37343
11.4279 -4.12968 4.39066
-16.5726 -3.06507 2.02073
7.50132 3.12126 0.760207
-19.7244 -6.89115 13.1094
-0.0234904 -5.87478 0.545261
11.2116 -5.3744 7.96083
-4.47624 7.32081 4.74877
-20.889 -18.5767 0.222354
1.44294 -15.6535 7.75908
11.3565 -4.5981 12.9094
-9.81198 -15.6347 1.36827
4.94992 -11.8016 3.12228
9.81956 2.00939 10.8763
-13.3499 1.5833 9.5595
3.71301 4.38397 0.671662
-16.2293 5.55894 9.4419
-19.389 -18.0052 0.602588
7.94517 8.13958 0.820594
-18.2863 -3.49746 14.0877
-5.41872 2.76478 6.79391
-0.243827 -16.7099 3.60976
-16.192 4.21612 3.17372
-23.1828 -13.6321 14.8422
9.88041 1.92143 12.3812
-7.55715 -2.8914 0.417724
-15.0974 -2.53 5.88127
-14.436 -0.800441 1.82845
-2.81187 -4.06645 0.488918
-2.29957 -7.66441 0.486829
-18.1858 14.8128 2.19817
-10.8755 -20.2774 5.86979
-22.7209 10.4382 3.96159
10.1226 2.0324 5.10958
-18.0949 -3.53743 1.63693
-20.2717 -4.21192 2.87128
-20.2452 -5.34766 5.17488
6.43868 -10.2568 0.909297
-11.2649 -18.1739 9.93977
4.15014 -5.33772 16.4178
-16.3604 -18.0234 5.74052
-20.8055 -15.0391 4.63741
6.54837 13.3695 3.37397
9.18925 5.59561 18.4112
-12.1592 8.6713 0.238417
-19.2992 7.53625 -0.647657
4.79717 -1.09756 5.14537
6.12244 13.3417 3.33795
8.26827 -4.9476 1.20036
-4.46805 15.8425 5.8696
-11.0755 -8.33526 0.29676
-3.27997 -1.13248 0.48714
-5.92087 -10.9537 9.82809
-20.9617 -15.6615 0.888671
-23.0353 -12.8837 5.54496
-3.04086 -6.14862 0.474991
5.12103 -14.403 1.62891
-18.0351 -22.6531 5.43552
-9.78857 -19.4581 2.36247
-20.0737 14.1493 8.02876
6.29152 0.340597 0.740387
13.0986 -9.75882 8.32043
-18.4926 -19.7255 5.78028
-19.1728 -8.02426 12.7666
-6.27557 -3.63463 0.426651
-2.54923 10.6067 4.6284
-16.8585 -20.1183 5.63419
-28.1724 6.21005 1.84715
-17.5056 10.7918 6.02693
-2.77239 -4.63588 0.491035
4.13206 -15.3068 6.1705
-21.0123 -4.38444 11.3864
8.72457 -7.58436 0.762439
-20.2995 -5.06726 2.0358
-23.7477 11.5399 4.21099
-22.5908 -15.4971 13.6449
1.95102 5.39234 0.644541
-8.2008 -16.008 0.485517
-7.67821 -16.0106 12.4811
-20.4541 -14.4368 0.767046
-2.0191 -12.1712 0.460209
-15.7915 -2.81451 1.63143
-18.0771 -21.5455 5.81594
5.40701 17.8816 6.0787
-2.95837 -12.9955 2.39047
-23.0598 -13.8668 12.3708
-15.063 -8.91143 0.211662
5.7843 -2.77424 7.35431
-0.386167 -0.801408 17.8979
-24.237 6.14551 1.60673
-21.29 12.8515 -0.891742
4.247 18.4125 3.95521
8.1128 10.3341 18.4625
-9.75474 15.084 0.276174
0.997094 21.175 5.19929
-22.2905 -15.724 1.94869
-0.593985 5.03589 0.790852
1.77541 -16.1378 2.84852
1.18402 -8.38464 16.3902
-18.8131 -9.12842 10.422
-6.88561 -15.6879 6.03332
9.55858 -1.58423 0.649309
13.9567 -12.0916 6.34661
12.5587 -8.11173 11.5948
-16.2942 15.3546 8.10853
10.067 2.05428 12.0953
11.2842 3.01803 8.10963
-5.30749 7.20877 0.363508
5.46252 -11.1285 1.39371
-19.8543 -4.02417 13.8565
-11.8407 -1.13927 0.260107
4.58706 21.8977 9.4206
-16.7835 -2.83179 11.35
-20.3188 -11.1947 8.97526
6.07799 -0.814903 3.42353
-1.04054 -12.4014 0.535325
11.5322 -5.3659 7.38855
5.23449 17.4344 5.8394
-19.4022 -17.0164 0.209837
-18.2359 -3.71618 0.661808
-11.2296 -14.0642 1.59437
8.23954 -13.91 6.06665
4.45679 22.3609 5.37967
7.22816 10.0323 5.1205
10.0782 2.24494 14.9747
2.70621 0.343257 0.692069
-20.6704 -4.84171 5.76294
-4.29272 -14.901 3.62741
-12.0851 -14.9607 14.4539
-21.1344 -19.4489 10.1456
-10.2924 -10.1715 16.2329
10.1207 0.833041 2.37742
7.88836 -10.828 6.15245
5.60441 16.5163 3.38667
-18.1133 -3.52982 1.85244
6.96086 -3.32698 5.83722
-10.7191 14.3475 5.33081
2.95949 6.11684 5.09929
-14.9166 0.209616 4.82585
9.61449 2.67127 17.3643
1.12608 -16.294 2.09466
-13.6537 2.27851 9.73585
-0.0463058 3.59095 0.594452
-29.3023 7.7713 3.23352
-24.2413 10.4112 3.67861
10.6183 -1.46122 8.41016
10.8408 -2.74877 9.02458
-10.2282 6.35885 0.199958
-24.7482 -8.85226 18.0225
-20.8829 -5.55592 16.1952
-7.48202 -18.5835 3.37171
-17.9657 10.5794 9.57002
-5.61799 6.8132 0.38841
-15.5324 15.7637 1.54915
-22.7277 -15.0748 13.0538
-11.7758 -13.6588 0.245344
12.1437 -6.05383 4.57482
-8.62922 -19.5202 7.60209
-0.62948 -16.7696 1.00295
-20.3933 -15.6432 12.4262
13.0558 -6.58805 3.90272
-19.9664 -14.724 11.4896
1.06455 21.2496 3.94391
-17.4083 7.75312 12.1072
9.79286 1.30927 17.3586
-18.7311 -10.0522 8.36763
6.92133 -2.90605 4.41919
4.66144 -10.7909 0.766718
-13.8905 -0.26388 9.5707
-20.7599 -6.28852 16.1798
7.48026 10.1417 16.6238
-11.7476 16.8721 7.38494
9.56597 8.95872 10.4434
-12.2591 -20.1027 5.68523
-22.9407 -12.6875 4.68602
-22.3084 12.8388 0.838455
-2.68723 -11.0002 0.712774
3.72161 -9.64754 0.581964
-22.3166 11.872 5.82543
7.69577 8.82678 8.37204
-3.20625 -14.7998 4.13407
-16.0913 2.91949 8.61917
-21.4266 -18.5864 9.34322
-18.7075 -9.59619 13.1572
-8.51341 -7.65914 0.30534
-28.7713 8.56112 3.55487
10.9017 -2.88673 8.61073
11.3555 -0.707939 10.6286
7.97976 9.02171 9.15471
-8.70491 17.8007 7.12169
-20.2632 -5.33709 10.3599
9.53621 5.59662 17.3797
-20.2857 -14.9299 0.961945
7.00138 10.8253 15.8799
-5.6929 5.92707 4.76609
-9.5636 -1.86655 0.238881
-2.93057 3.24275 3.40866
-8.09056 -13.3346 13.0574
-18.0144 -3.45765 6.60699
7.24548 9.90146 11.9065
-24.2913 6.30397 1.06855
-11.0191 -17.9106 11.895
2.90482 -7.84323 16.3651
-10.9993 6.91538 0.258685
-9.20586 -10.5982 15.6143
12.9709 -12.3545 8.3898
5.00111 18.8938 4.65646
-15.4085 2.26483 1.36487
-16.1944 4.20107 12.6053
4.88502 -1.69725 5.86718
-15.3718 -20.71 5.73914
8.37923 8.8519 2.37405
1.74788 -5.38137 0.569035
-13.331 -20.3318 3.37918
-27.9463 10.3405 2.81493
12.1111 -6.91025 5.35312
-22.081 -11.7741 9.87107
-0.385783 -16.7724 5.30454
-2.74419 15.8244 5.69584
-5.45839 -18.5362 5.09054
2.97176 5.34796 4.13754
-15.8467 -2.53522 11.1472
-20.1189 -14.2294 0.305663
-11.2941 7.83368 0.232052
-14.7785 2.10596 0.212381
-6.33754 5.86501 2.79574
-11.2991 7.96478 0.251038
12.8062 -8.62033 9.3845
-7.69062 -14.7578 4.28423
6.3606 -3.10644 6.14492
-7.28755 -16.9142 0.324846
-8.27676 -18.6278 0.374031
2.9661 -2.8812 0.644811
-23.7429 13.4747 -0.922076
-12.5566 -13.101 0.272495
-5.76654 4.36228 0.413794
3.99582 22.1704 8.87685
7.35331 12.9452 17.9513
-17.8076 14.807 1.62568
4.28262 18.516 4.84575
0.202658 21.1148 5.12729
-13.8079 -20.9622 8.70002
-2.84956 18.4784 6.09687
10.1241 1.4746 9.38422
-24.8318 8.81919 1.39233
7.01955 13.7934 12.7737
-8.36436 -11.3678 14.8851
7.30693 5.86829 0.767792
-21.5416 -18.1591 8.38675
-14.0791 -1.90017 7.63846
-22.6416 -12.399 3.12011
-10.7851 17.1925 1.36593
-15.8489 3.08877 13.6086
-8.11722 -17.8176 7.27211
7.12262 11.6012 5.87858
-19.2694 -7.93684 7.63354
-24.2929 6.33522 1.57478
-14.2653 -8.28426 0.25383
-11.2874 -12.9438 15.9542
-18.9702 -8.48475 9.91768
3.63209 -7.04364 16.8532
0.0817523 4.49184 3.71937
-20.5127 -15.9901 3.3632
-2.03507 -3.5857 18.0329
-24.2862 7.36946 1.59038
5.51776 17.5152 6.26892
-16.1734 4.21483 10.6273
4.73044 10.4915 19.1711
-18.9291 -9.36533 2.57026
2.97423 -16.0415 7.82014
0.102975 9.58956 4.74129
-3.39154 -1.71001 15.8778
-17.0344 8.08273 9.6797
-15.7002 2.87214 3.39467
5.1645 -2.06477 3.07989
-20.849 -20.1733 11.1347
12.0763 3.51985 16.8027
-15.8782 -2.84357 13.4865
-4.04553 2.90561 2.64095
2.38353 13.8846 4.13112
-14.5188 2.66124 8.37582
2.2092 -0.133682 0.636132
4.65578 -12.879 3.37457
-20.961 8.91772 -0.986558
-2.53637 5.10313 4.97996
6.38593 12.5786 2.87606
-1.03367 14.3609 4.80479
10.9503 -3.15114 9.63435
3.44716 17.8651 4.11866
-8.04933 2.85375 0.466253
3.10062 -25.3867 7.90431
11.445 6.60441 13.3329
6.70325 4.61438 0.731778
-24.2347 10.1203 3.57437
11.4619 -12.5685 8.80334
9.59921 0.0383846 7.34744
-13.789 2.62398 0.217041
3.94473 -5.43541 1.09754
13.8003 -11.4152 8.23816
-3.47287 2.11103 18.0718
3.75401 16.077 4.86854
-11.0079 -11.9188 0.32773
-9.24899 5.64522 0.251267
-19.5752 -3.96527 10.1618
-2.03751 6.36032 4.82444
-13.1539 -12.7543 14.8006
12.1481 -5.01095 12.7723
-5.05328 -13.3768 0.609956
-7.29381 -14.6738 11.8766
-7.82871 -14.2947 2.40773
5.98412 17.6519 7.93835
12.5038 -5.97624 3.26813
10.9411 2.38468 0.725902
-9.05601 -0.148835 0.271948
-11.0222 -9.64635 0.295673
5.57325 -10.9409 4.09086
13.5734 -10.8329 6.40277
-18.7267 11.882 9.87466
-22.4298 12.2 5.39226
6.34813 14.2695 5.88815
-17.5369 14.8284 0.901974
-17.281 -15.3906 0.163983
-8.54842 -15.8926 0.857545
-9.37272 16.3948 7.92455
-2.74467 -4.85621 0.488668
3.35449 11.0291 4.0445
-15.0423 -21.6604 6.15534
-13.9983 -7.70117 0.258344
-15.5804 15.624 7.09568
-10.125 17.1194 0.918018
-12.8656 16.4216 5.42971
4.14982 -15.3549 5.14977
0.21863 17.1271 5.62258
10.7332 -0.699295 5.92713
-8.55941 0.347558 0.286294
-19.7764 -6.38158 15.8859
0.728525 0.614674 0.588346
-14.5535 12.1261 0.18068
-10.5296 -14.8339 1.15285
-14.3052 -1.3643 7.6093
-0.935402 -16.9646 4.93755
-16.92 6.47343 13.6128
-23.8739 10.3438 2.63046
-16.2044 5.09295 0.329734
-15.526 -2.48668 10.0581
6.67388 -6.88913 1.6177
-13.3973 -20.773 3.0599
4.98124 4.12956 0.689636
7.69977 9.86023 18.4675
-14.78 15.8464 0.140889
-3.90602 -15.1253 5.37131
-12.3732 -17.7968 10.5397
-3.14137 -11.3592 3.9708
-13.0517 8.65094 0.210687
1.963 5.30101 18.3121
5.84962 15.7718 5.37303
-7.49968 -14.5244 12.0316
6.96039 14.3432 9.11751
-17.7525 9.61874 -0.160362
2.18614 -15.8733 7.05937
-22.7747 13.0821 4.11622
-5.71664 4.55489 3.11438
-2.80783 9.08378 4.80579
5.23317 -2.56383 4.19526
3.56124 10.9035 3.48209
-10.7995 4.56427 0.291527
-26.4707 10.9736 5.65599
-13.8878 -1.72938 0.645621
-12.848 3.59086 0.244878
-0.911069 -11.2632 3.10784
-6.78839 12.0101 4.4739
-19.4754 -3.96329 5.0873
-14.946 0.905258 0.599199
-2.5594 -1.12049 15.4028
-16.785 15.1559 6.87186
-2.52185 13.1067 4.70115
-11.8502 -10.5752 16.2892
10.7803 2.43163 12.6066
-15.6365 -2.77542 7.17536
-5.55575 3.88169 0.434258
10.6491 2.52751 5.84921
-4.76835 -12.3655 0.434807
-6.28646 18.6985 7.62757
-13.0497 -13.7091 13.9923
11.7507 -5.62664 4.13375
-12.8019 -14.6419 0.270748
6.49541 -2.65517 0.753434
-4.55201 -15.0966 1.43959
-11.2906 16.1952 0.675848
-20.8254 -4.29183 17.9052
-7.62372 12.8736 4.71405
-19.6453 -9.06868 -0.1619
-17.0229 -16.4609 4.71403
10.9565 4.88605 14.9269
1.73303 20.4009 4.05724
6.51769 -2.20667 0.750625
12.3502 -10.766 4.55939
-4.52636 16.0775 5.91688
12.5728 -7.8208 5.6539
5.21333 2.62843 0.718659
9.72522 8.36704 7.83333
-20.8195 -12.3827 0.659198
-20.2879 8.84934 -0.771373
-18.4527 13.1739 0.317566
-14.1739 -1.83882 7.22239
-6.1055 -13.0666 0.728345
1.81487 8.47081 4.99239
-7.76565 18.1444 8.32994
10.2689 5.34642 2.42992
-12.8653 -19.274 1.17789
2.78665 6.88953 1.41741
-2.79977 -12.9472 1.83326
2.22956 -5.46684 16.7521
-15.7823 -11.6052 0.216537
9.93406 6.13432 3.69584
2.42105 16.2976 4.58693
-13.5394 -13.3933 0.239719
4.4495 -12.3386 1.62122
-19.0526 -14.2084 0.162444
-16.3404 4.0636 17.9181
-2.53579 -1.64077 0.53018
13.5 -10.8783 8.91378
5.32266 16.9597 3.68253
-11.0336 -19.1211 0.273892
-15.0586 -14.6447 0.242728
-13.1263 -12.8893 14.7035
-19.3572 -7.59213 8.86268
4.22779 -6.18402 1.91044
4.31426 5.71249 6.63756
-7.75771 -3.16389 0.414277
10.8652 4.59019 7.54297
-7.26891 9.92262 0.242446
-15.3631 -6.05209 0.195745
-11.6533 -15.7742 14.2487
7.90948 9.13034 3.34179
-14.5354 -12.6447 0.233438
-19.7914 -18.9524 1.64587
-21.5354 13.0722 -0.648293
-5.59207 -18.0224 2.64409
10.9457 -1.3974 5.94388
-6.42649 3.86827 16.9203
-5.43973 -10.772 8.95037
-13.5138 16.1674 6.65973
-5.55101 14.8599 6.3974
-1.13234 1.05309 17.7289
-5.76833 14.3075 6.20904
-0.0404971 -11.8411 0.534108
-19.7316 -7.63671 15.8637
-17.2319 11.1285 1.59886
-12.3975 -15.203 12.6033
6.51062 13.6307 3.09346
-7.55806 -7.37928 0.38447
0.531132 19.2693 3.93892
-20.6326 -20.99 8.57955
-8.01773 -17.0622 10.4118
11.7875 -6.04861 10.8775
11.4568 2.7025 15.351
-22.3189 12.0321 0.75679
11.3594 3.34248 16.2646
9.54377 8.1535 7.54633
4.61414 6.15532 1.90147
-20.7088 -15.1513 8.85971
7.28307 11.9486 8.8641
-9.82402 10.8297 0.323554
-18.9463 13.1406 2.88326
2.15774 -16.0125 3.75964
-18.5702 14.4438 4.30688
4.18546 -15.354 2.61619
-5.68662 4.06089 4.51906
-21.0962 10.1756 -0.901504
12.054 -6.86613 13.1362
11.4596 -5.41411 7.81232
-14.4849 11.3357 0.266305
-10.9463 -2.09785 0.344343
-24.3557 8.11255 1.36903
-1.75878 3.82427 1.45941
-22.6121 10.4799 4.14188
-16.1692 3.97401 15.16
-26.3397 11.1615 4.03569
-17.9102 -2.44596 19.1711
-3.23909 5.1754 16.8049
-22.0061 10.6791 3.35494
-16.2657 -2.69765 10.3777
9.66242 -8.70399 6.30445
9.09979 9.74647 16.1152
-5.3286 -11.2678 9.12709
-10.9669 17.1991 1.37126
-5.35683 -11.2827 6.43749
-1.55232 -10.8687 0.491537
12.7858 -8.90835 7.38899
-2.76312 -12.9446 1.38788
-10.0508 16.5272 7.33838
2.22295 -12.8751 0.517509
-3.3346 -17.1453 0.439675
-5.7797 -7.88806 0.432063
-6.43998 -1.41858 17.9831
-6.52741 -17.4326 5.82081
-15.1914 0.88624 15.0395
-7.86241 -18.4229 0.53853
-0.271684 19.4115 8.12613
10.7923 0.960374 11.9318
-5.35662 -18.5317 8.27667
-10.5475 -19.3904 5.9496
3.22131 4.86948 0.668722
7.35705 -9.89816 3.68788
-15.2795 15.7223 5.0472
-13.0479 -12.6248 0.257813
10.6066 0.526038 17.6959
-7.56592 -4.88888 0.40809
-19.4859 -6.88957 13.7743
-10.5484 4.38815 0.287413
-18.4058 10.8679 10.7304
0.561642 4.47219 1.89372
-20.7906 -14.8269 6.65314
-15.7726 -18.8087 6.12117
-16.3182 15.4271 2.65079
7.0974 11.751 11.7138
-12.3562 -18.7879 1.74533
-18.0284 13.8674 9.14429
-20.7859 -15.0449 11.5532
-22.1637 12.984 1.3931
11.3563 -4.67848 9.43565
-14.3602 -1.39083 11.8574
-9.60608 16.2227 8.03902
-6.78412 -18.626 2.89589
-0.485563 -12.3171 0.503881
-15.5073 -20.2332 5.74553
-11.328 -20.411 5.94765
-3.18538 17.2686 6.27415
-18.2461 -10.4421 13.7868
-18.8277 -13.4137 0.159497
5.89417 17.2764 13.7722
2.20481 16.4837 2.99735
-20.5428 -11.6866 0.0633011
10.1082 6.50799 8.62223
-15.5523 2.35645 5.62105
-20.341 -21.9002 7.134
-8.43162 -13.0491 13.4424
13.8969 -11.6663 6.6328
1.62775 14.0803 4.75971
-15.9791 4.62732 0.206517
7.68528 9.32975 17.8316
6.55428 14.5545 6.25468
-16.0932 4.26937 9.10967
-25.1035 11.6322 4.02214
-17.6073 10.3081 6.87332
4.22845 6.53798 0.700421
-0.47839 -16.7877 7.35218
3.64616 3.75856 17.8341
-22.5668 11.6993 5.34454
9.83155 0.72203 8.44284
-20.0821 -5.13689 13.6726
-11.4565 -11.786 4.89045
8.7489 7.39252 17.4461
5.51762 12.2125 3.50782
0.220827 20.8593 3.94768
-5.29714 -17.9571 3.12775
-4.0776 14.6546 5.30937
11.9073 3.74292 11.6797
-20.8222 -14.8531 3.11539
-5.69292 -11.6456 8.113
-0.812667 3.64415 18.3359
-3.13571 -14.2424 0.43795
4.1168 8.59648 4.31999
-16.4872 4.40218 3.37726
-18.9037 13.004 4.22392
-11.3223 14.8558 0.165458
-16.8378 -16.2977 3.19373
-8.81733 1.64614 0.582008
10.121 6.14446 1.98118
-21.6658 -17.5957 5.59639
-0.31853 -16.7992 2.13436
-22.9849 11.0569 4.15252
-1.33685 -7.39499 15.7931
-14.0313 -12.6295 0.257875
7.34677 14.0258 9.09787
-6.94573 7.62039 2.89373
-5.53163 3.42386 2.30619
12.5738 -8.33452 7.41551
-17.546 14.9055 1.89862
-6.26768 -7.9016 0.415137
-13.6382 1.07728 9.61667
-7.12562 -17.3755 5.86303
11.3587 -3.90152 3.86444
10.6121 5.0381 10.5715
11.1512 4.42651 16.3938
7.26225 9.44908 14.6142
-14.7098 -0.386985 3.63296
11.4048 -6.06704 8.60816
-11.528 16.0764 0.176002
-11.3837 -16.4398 13.6908
-4.80289 -12.6322 0.445873
-19.7429 -15.5742 9.33414
-7.87548 -14.1279 1.4064
2.56061 12.8909 4.18766
-10.3503 5.8205 0.257048
-20.3558 -4.89827 2.05625
-13.7748 -0.850112 0.239365
5.3931 11.5875 18.2627
4.58324 -12.5637 1.55351
-19.633 -6.9657 9.40411
-19.2656 13.9097 4.5883
-11.1739 -13.4309 1.69604
9.1788 8.11269 0.858984
0.350738 20.9826 8.34467
-3.49804 -15.4424 0.398137
-8.7809 4.1007 0.263845
-15.7421 5.68475 3.15136
-11.3571 -6.225 0.200528
-20.3501 -5.3672 6.63384
11.4263 -6.15669 6.14082
-17.4974 14.2711 2.97058
10.3663 4.63945 1.59842
-0.291223 -16.6594 8.36625
10.1181 0.509935 4.98613
-19.029 -5.14793 0.104803
0.468419 -11.3987 0.523792
4.49011 5.69957 6.93901
-14.3862 -0.296152 6.93998
-13.3581 3.8607 0.245016
-8.61727 12.3504 2.41607
9.58594 7.22704 4.69308
11.0405 4.28894 15.8142
-18.1861 10.1642 11.1322
7.45448 10.1205 0.737426
-16.3746 4.59622 15.1083
4.65389 -12.9207 2.37646
-17.5568 14.9272 4.62169
5.37331 -12.7984 10.6973
-14.7048 0.196614 0.216069
-20.5576 -15.5846 8.1681
4.99293 -14.126 2.88496
6.86308 13.0674 1.59167
-0.752056 -16.9905 1.8668
-17.7049 -22.4959 6.87697
-14.5451 -8.94461 0.263524
-4.50342 3.08975 4.80069
-8.7629 6.17959 0.256042
8.71847 8.62801 6.31976
-3.38145 -13.8695 2.62702
-16.3145 12.6367 -0.00849819
-18.8599 -3.78303 4.37351
-1.43642 3.74651 4.13635
-20.6966 -20.545 4.16404
-6.31251 17.3806 6.17726
4.90747 -0.742108 4.3572
0.719391 -3.12238 0.569926
10.8047 3.36926 4.63188
-14.0911 2.83791 8.64194
7.79769 -10.9136 7.25219
-9.21196 -19.4843 4.14063
-2.13859 14.4512 4.73914
-19.6037 8.15687 -0.654947
2.51491 -15.6214 7.63339
-4.9629 -16.2541 0.345626
11.8335 -7.58293 8.29268
-9.02273 -7.34008 0.354915
-0.260906 -16.4845 5.8825
5.6174 0.463021 2.09358
13.85 -11.9607 8.35154
-5.81514 4.63232 2.3517
-21.1233 -19.1471 3.61694
10.1448 7.27049 13.259
-4.07116 -17.6111 4.37141
9.53127 1.00187 7.18643
8.38667 9.18489 8.64757
10.6596 0.707195 15.0857
-13.1916 14.1993 5.24182
-15.2838 13.8902 0.113558
-9.00881 4.85489 0.236111
12.6072 -8.49065 12.0009
-16.3183 4.30057 4.87143
8.01419 8.89465 7.36527
-6.1424 6.02498 2.23497
-2.49169 5.08609 16.7293
-4.54503 -11.6139 0.435258
-24.2546 6.85712 -0.65026
-6.79201 -3.60955 0.418855
-11.4506 -19.4748 0.430249
-7.3363 -2.90346 0.422198
-13.2376 10.3218 0.258361
-6.54626 -18.1774 0.608833
7.19328 10.6829 6.39014
9.06949 7.13148 7.13238
-12.2865 -10.3844 0.289125
-1.32823 -17.2875 1.36282
-19.8608 -11.0257 12.3115
-20.6402 -15.2937 11.3678
-23.0292 12.3108 6.60949
-18.7092 -10.0564 10.3064
-1.71595 -17.2008 6.33721
-6.03731 -2.66617 0.439454
-12.0063 8.06423 0.24068
-13.5836 -0.0119951 0.249908
9.20821 9.6516 11.8658
-2.53972 -1.11986 0.524873
7.26492 9.88813 12.6612
-13.2423 -0.346222 0.231905
11.592 -4.81594 1.20506
-19.1558 -8.87196 14.6009
-25.2534 6.08783 2.2672
0.261964 19.7962 8.17359
-19.3981 11.2761 -0.573092
-11.0718 -1.38702 0.305826
5.09749 -2.50287 6.96335
-26.3088 7.6586 3.36718
-2.31168 -10.2274 0.494078
-22.0782 -16.3144 4.39354
-9.56652 -19.789 8.39022
2.38225 21.675 3.87134
-19.204 -8.35713 4.45317
-12.8191 -13.9979 14.6232
-10.8348 16.5903 0.879825
-23.5812 -11.0445 18.068
-22.3905 -15.1735 1.35183
-9.5068 12.1067 0.318784
12.834 -8.79127 10.5972
-24.8673 8.8053 2.27633
6.20871 16.9419 8.49944
-7.27646 7.34771 0.323166
-8.78612 -17.3216 10.4196
-6.20743 6.04672 2.18121
-7.02685 -17.9592 0.937391
-10.4712 16.1007 6.17436
-15.8028 15.5932 4.89149
-20.4762 -19.4781 1.32633
-15.2881 15.7059 6.12158
0.729928 21.2857 6.39245
-17.2262 -3.28914 8.39352
4.88152 21.4872 9.92632
2.89733 18.8106 3.96356
4.81314 17.549 3.42658
-17.484 -12.6263 0.141977
-16.7555 15.2926 1.5793
-12.7751 14.3929 6.83874
-16.1205 -16.0261 4.14311
4.72867 17.5779 4.02839
-9.8678 15.951 0.285195
-10.5295 14.1217 4.88544
7.92695 6.05572 0.737409
-22.3773 -15.3235 1.37215
11.0439 2.59913 1.1199
-13.2461 -12.6995 14.8985
6.83479 9.63538 7.30969
-2.7859 19.8625 8.64259
-16.6917 15.2882 3.27959
-16.5575 15.3207 5.12546
0.436846 -16.3389 7.60241
-22.9164 -14.0167 7.98733
-1.81649 -4.63236 0.502415
-14.7358 -2.4833 1.14767
12.8525 -11.0231 4.07324
-2.01353 15.5782 4.86218
-20.0755 -15.786 3.64094
-20.0426 -5.12566 13.7699
8.3608 9.07337 2.35974
11.8555 -1.86716 11.3028
11.1264 4.36526 13.8167
-13.866 2.15759 10.3249
4.77428 -14.9981 5.90583
-11.3953 -17.9418 10.153
-20.8029 -14.7182 3.37639
-14.2077 -2.12918 14.9042
4.52824 -15.2056 4.37312
9.12131 8.0176 6.82253
-11.7978 8.89573 0.255739
-16.3357 4.32721 5.35626
-8.97396 -15.8605 1.32236
-9.8034 4.36476 0.214544
-13.8772 14.7671 0.273948
7.61337 10.3052 9.89858
-20.3427 -6.35467 15.8572
11.6775 -1.81348 10.1899
-14.3455 -16.6115 4.9041
2.62699 11.3573 4.76962
10.6475 0.824027 15.6197
2.26037 16.382 3.89148
-14.5588 12.4122 0.218565
8.60302 10.0363 0.810642
-20.8721 -15.4726 1.0099
-13.9401 0.0133634 0.249067
-10.5279 -10.1324 0.314471
9.29847 6.81083 16.9666
-28.9488 10.6215 2.84778
-9.69266 -11.4986 16.5226
10.1388 6.86083 9.88906
-19.9882 -19.3414 0.287801
-7.79641 -15.6341 0.71782
5.0684 -11.76 3.82426
2.97384 4.56321 18.3304
-16.6271 -16.3804 1.41654
4.58052 -5.25062 1.50094
-2.84578 -17.2954 2.11865
-25.2534 7.77711 2.44884
-3.18407 -17.7438 6.83186
-10.5204 -18.892 0.318952
11.5111 -4.38092 4.136
-13.0362 -9.66081 0.271168
-11.0437 11.8379 0.295605
10.3364 -0.310375 2.86089
12.997 -10.3989 4.84745
-0.0991611 -13.124 0.540009
-20.6419 -14.7391 1.53459
-20.5066 -15.1629 0.212497
-11.2664 -9.88199 0.302489
-12.8517 -1.81549 0.236928
2.75777 16.2303 3.96019
-6.84335 -16.3747 10.3648
-4.27976 3.73418 0.979646
-10.3317 15.6219 5.32276
-4.84625 -18.3131 6.16252
-9.05379 4.18624 0.239202
-12.3836 -0.23299 0.251435
4.16271 -0.927097 1.08546
-14.2156 -1.56021 8.62118
5.30819 5.96017 1.9413
-6.37844 3.18079 16.9225
-19.8892 -6.93498 6.39123
8.94967 6.10782 17.4921
-13.8346 -2.14933 0.877218
-1.03338 5.33668 5.00667
-14.0651 -17.2495 4.4044
-26.8959 9.10363 -0.713865
8.32621 8.99183 6.98486
-4.02442 -12.4104 1.04424
-11.335 -13.9857 2.61012
4.3882 -7.85886 16.0558
-8.0548 -9.12627 0.327734
-10.5658 16.1066 0.313405
2.85784 -16.0852 7.42962
-19.2539 13.898 4.13021
-22.8216 13.3917 6.22144
-10.5555 -9.88551 0.296678
-1.89131 -2.47979 18.0626
-15.7486 2.65721 10.8973
12.7295 -9.65952 3.8428
-7.73399 -15.0516 11.9245
-4.70273 4.89918 17.0295
-15.6148 15.7534 5.95984
10.8361 -1.50098 8.65513
-9.77685 -14.0728 0.697027
-17.7663 13.5919 1.1293
-20.1504 -5.49271 14.8631
-12.9405 13.5036 0.524221
11.5099 3.3285 10.8454
5.6547 -10.0478 5.19783
2.16656 -16.0232 2.82924
-14.1503 13.5043 0.254562
3.96814 -8.8547 1.15148
-22.5069 13.7533 1.95815
-8.55469 -8.73862 0.227956
5.36344 -2.7712 7.03394
-16.2581 4.54735 8.87921
13.7723 -11.6571 8.34895
-11.2868 4.83665 0.266497
7.32427 10.5043 14.6038
-15.0355 5.36703 0.366679
9.7184 -5.91949 0.7375
-11.6593 -14.2844 3.04794
-20.6866 12.3156 -0.823312
1.25563 -10.4852 14.9923
-5.02142 6.44721 17.5403
-16.5615 4.36686 8.08872
5.22554 -4.32992 0.72112
12.5755 -8.23224 5.10925
0.459503 -10.8954 0.525802
10.8136 3.44491 3.14925
-17.9515 -3.49814 1.37023
3.20297 5.51128 5.90077
4.8722 -13.6326 2.11934
-15.4519 4.78824 1.56286
-11.5301 13.8072 5.52499
9.39467 1.75091 12.6419
-2.36913 -16.9593 2.55142
-12.6831 -14.6815 12.8841
-22.4037 -15.1697 2.09139
-11.2878 -8.1251 0.283263
-8.04516 -6.15024 0.460396
-26.1264 9.84387 2.40616
-16.539 15.4327 1.35859
-12.8822 -11.82 3.47989
-14.9677 -2.4898 5.35233
-13.4997 -12.6093 15.0149
-8.77683 -19.4164 8.53756
6.92025 -2.95735 2.63727
2.6927 -15.4207 7.57395
5.72034 14.1208 16.3419
0.932687 19.1078 4.18479
-7.56568 -17.6382 0.34466
-4.98386 19.3052 8.64899
-19.7378 -22.6572 5.67338
-13.2868 -20.6132 1.85568
-20.8986 -11.3778 8.61898
-21.9164 -16.3661 0.750849
4.45113 6.13718 2.62814
-1.51914 -14.3167 1.90016
-16.9342 9.66483 5.89029
-8.79815 -0.1374 0.264509
-5.11725 5.84899 17.511
-18.7389 -3.66301 15.569
5.16375 6.66909 18.053
-20.0437 -5.63224 13.5684
-16.0865 -2.8642 13.2318
-22.6843 -13.6126 5.12058
-8.28766 -17.6534 4.94269
-2.78575 -13.6201 4.18449
-18.5989 11.8535 5.64502
-19.5401 -23.0381 8.34122
11.1025 3.54352 7.46485
-21.2989 -11.9311 0.183233
-19.4217 -23.0409 6.08791
-21.8857 -12.0742 13.7294
-9.76062 6.39654 18.1437
-15.7924 5.36643 6.86803
-1.38019 -17.0991 5.83332
-17.2423 15.1295 0.233918
12.247 -1.6801 12.1344
13.86 -11.8668 7.13333
-20.0606 -12.414 0.138252
7.27516 10.6355 9.12144
8.70761 -6.90296 0.758005
-8.19798 -15.0238 0.326637
5.14296 -15.0035 2.41827
-15.5184 15.0662 0.178314
10.3508 1.4728 2.65255
-1.50667 2.86804 18.0648
4.69104 -12.4225 4.90806
-16.2798 -2.97341 2.03334
-20.771 -4.44635 9.12224
-22.6438 -14.6912 5.61278
-20.7925 -10.9695 14.5594
4.04275 18.2812 5.16119
5.99163 14.0077 16.4989
8.52566 -7.35214 0.749561
-3.80491 -5.38837 0.470215
2.61796 -6.97518 1.22682
-11.0422 -14.3355 0.37368
-20.4586 -16.1124 6.58702
-7.50527 -16.7435 10.1309
4.54443 -12.5825 3.63457
10.1143 6.77859 8.3375
-20.7606 -20.5523 9.11328
2.70951 -15.726 6.3967
1.956 -8.15193 0.574327
10.3206 5.85965 13.4815
0.746939 -16.4361 4.60503
-11.7113 -12.5978 3.85013
-20.7809 -4.88024 5.64029
9.41732 -5.8967 0.730908
-7.74274 -14.8551 5.72638
-10.3812 16.9865 2.65709
-16.5386 -20.3931 5.70948
4.97701 -13.9092 0.8585
4.50185 -1.82829 1.35236
-0.0491029 -4.89203 0.531642
-13.6185 16.4262 7.15939
-4.80385 -3.91522 0.501881
1.71656 -6.6732 0.563088
-7.78414 0.600936 0.262341
6.96085 11.1039 17.6631
12.6973 -8.44133 2.91405
-8.21125 -7.40418 0.34828
6.09056 15.0113 4.91877
10.3598 5.7441 7.41502
-11.4966 15.8543 6.33004
-17.5071 10.5556 7.60557
-18.939 -8.78637 9.57137
12.0472 -7.99036 8.83788
4.44964 -0.309188 0.722746
1.68923 -16.0866 4.9365
-19.0099 14.0904 0.374824
-17.2938 -3.22276 7.92083
2.46718 -13.8862 0.526685
-18.7506 -3.67656 13.1409
4.44229 22.3036 5.82418
6.27629 -0.345933 5.5247
10.844 -1.46516 8.91717
-5.61232 -13.3128 0.870287
6.27208 -0.395855 0.741589
10.363 4.52384 6.77383
-19.8733 -20.0367 4.60221
8.91584 -7.41774 1.71123
-12.5534 5.95476 0.257369
-24.3361 13.1918 1.3951
-16.9904 6.33667 15.3816
4.02766 -15.2501 5.87314
-19.2665 -21.5827 5.95216
6.93516 11.6235 17.1334
5.40899 -12.2963 5.89766
-11.2865 11.3767 0.304791
-20.498 -11.2382 10.9181
-1.25426 2.52404 0.483247
-7.35114 -13.9565 0.757403
-6.75109 17.3056 6.31782
10.2526 6.59769 14.1248
6.60483 -1.21747 0.769376
9.39956 9.34321 13.5191
7.30296 -7.84727 1.10681
7.95218 -10.5319 -1.12764
9.81424 6.9154 7.28506
-6.24993 18.6645 5.88
-1.68218 -14.2629 2.39532
-20.7268 -14.6698 12.8505
-21.4131 -18.5064 6.35394
10.8281 3.22195 6.03411
2.56051 -15.0279 7.9312
11.0855 -6.26094 4.75914
-21.454 -14.7505 3.20557
-10.3939 -19.5306 0.703639
-14.5543 0.0796258 10.6107
-2.30518 -10.8178 4.19705
-10.521 -0.953926 0.283684
1.50214 7.13925 5.04135
-10.3275 17.2361 5.9847
-15.0677 -15.8598 2.73302
-12.2924 1.36671 0.257938
-20.3767 -4.28904 9.33608
-23.214 -13.3801 10.3625
-18.7454 -3.72798 2.88157
10.1352 2.40567 4.13156
-12.3144 -1.80824 0.234106
4.30144 6.03777 6.61124
-19.1087 -8.34167 6.59985
11.5998 3.2188 9.64176
9.28762 5.45778 18.0484
-19.0416 -18.4584 0.427102
-3.03721 -9.62626 0.473783
-10.9028 -20.2667 7.13857
2.74884 -15.7491 5.64778
-14.7543 0.0544984 11.378
-12.7745 13.0668 0.274771
-13.0615 15.1529 2.12551
-13.5742 12.1458 0.181673
-2.33863 -17.0434 1.14525
2.96275 3.59153 0.639408
-3.82547 -15.3797 6.30087
9.46795 6.13289 0.786559
13.0306 -9.35008 9.39725
4.86758 5.73491 3.20856
12.5296 -6.01833 3.24864
-9.35675 16.3525 5.60604
-17.2604 13.8517 6.84802
-14.5839 -0.595063 3.10556
-18.9554 13.4182 1.34907
9.77262 7.01281 11.4125
-20.9048 -19.8575 2.34282
-4.27423 1.57395 0.455634
-9.80834 3.37848 0.277622
-13.7229 0.808592 8.12431
6.41249 -7.96633 1.20304
4.37882 2.26933 17.95
-5.26407 18.9621 8.42198
12.0142 -0.90575 11.6321
-22.3623 -15.9691 8.15019
-18.2571 -7.1066 0.193873
