ply
format ascii 1.0
comment Created by Open3D
element vertex 1903
property double x
property double y
property double z
end_header
5.82555 -1.94974 19.5619
-3.31662 -5.78518 4.59409
8.81284 -1.61332 -7.83032
7.07813 -6.20705 -12.3688
0.382367 0.0734048 -4.80103
3.3279 -22.8271 20.0051
1.47294 7.22759 0.147132
18.7473 11.5662 2.57586
1.70137 6.39561 -5.24363
-0.681691 8.84733 23.9963
4.51228 9.4762 2.40053
5.39597 -5.62479 16.9447
0.926877 11.3453 18.4206
3.67187 14.6505 -0.574286
1.0133 -17.7342 4.67375
-3.62113 -21.5291 9.24566
5.05412 14.9065 15.9753
1.71 -9.30182 21.6691
-2.47826 -10.8344 19.206
-5.22795 -14.5476 6.38107
-1.4138 -4.74277 14.8723
-4.794 0.273335 13.255
-4.34869 -11.7738 4.91842
-8.5351 -16.1314 19.4818
-5.03005 -3.89342 11.4448
-3.61683 -22.4894 14.2624
-7.67128 5.15894 22.4325
-1.98575 -0.249046 17.5541
-2.32928 -25.1829 12.3864
15.1565 1.4196 8.71666
0.0168532 -13.4551 9.99746
2.23802 -19.9277 4.64505
0.416717 1.92149 7.57952
2.42764 9.70591 8.25034
-4.23715 1.99278 11.9505
-0.379154 -2.45458 -3.37614
2.52996 -5.72114 -8.09991
3.42445 13.6404 17.8402
-3.64138 4.99041 11.1468
6.87902 1.4473 -2.46093
-6.11256 -7.7174 13.4387
-2.56895 6.33063 8.62465
-5.26869 6.48651 18.2843
4.21431 4.78326 -6.99875
-1.08228 -18.3952 2.94675
0.320901 6.22799 21.5148
2.56563 6.90674 6.80435
4.06199 13.9866 6.07755
7.45618 -12.1119 21.7348
-1.47434 -22.9009 18.0648
-6.18558 -18.5438 17.3194
-4.06821 4.06776 12.942
-2.20066 -23.3693 11.3095
2.7437 -0.0575823 -3.13056
1.42386 -15.7158 -2.14401
6.59029 -1.25184 -2.74391
6.88976 15.7363 0.581385
2.50739 10.1613 -5.06908
-2.86182 -0.591254 6.21293
17.606 12.5102 3.38509
5.5891 18.7585 2.32373
-2.69025 -15.5513 8.67502
-2.87324 6.72824 20.1256
-6.56438 3.21128 26.3604
0.941856 11.8443 20.6506
-4.55996 -11.4362 5.59709
-4.7288 8.93507 26.1443
5.68992 7.4922 -6.04821
5.30436 -15.5452 -1.48395
-4.48551 -18.9104 19.6385
2.44638 4.59674 6.85492
5.70093 -2.80935 17.4825
3.95087 -3.78616 16.9685
-1.9682 -22.8929 10.2881
8.62379 -5.41184 -10.128
-4.89529 0.295277 16.8365
-2.97389 5.49944 28.2362
-6.36786 -22.6329 15.6966
2.94968 -7.01425 18.4666
4.29305 6.35796 0.714548
0.494869 10.2476 13.1123
6.18903 0.00989706 20.7502
1.22444 -15.3849 3.02845
-2.68829 3.01722 7.47195
2.79545 -10.1362 -5.94913
0.41272 2.30156 -3.34175
-4.98783 -15.4221 10.4374
-2.87961 0.452117 17.4621
2.35289 7.32108 7.92971
-0.276259 -12.9278 1.38256
0.239168 10.5041 22.7946
6.49899 3.18629 -6.58001
3.17381 12.6116 17.3185
9.77024 -15.535 10.8066
10.5596 1.29761 -6.54529
-4.39645 -3.83619 9.93733
5.79778 -8.67135 -7.4454
0.617849 10.3504 22.9337
16.2636 6.22431 -3.88994
2.50597 -0.708843 -5.48743
10.3738 2.84032 -5.784
-4.04784 2.21312 11.5179
-6.00708 -19.6481 6.10028
5.26994 -11.8724 21.0172
-0.0138329 -17.1507 6.70288
7.61147 -2.06885 19.9423
3.70711 11.4445 1.37146
1.91927 -19.6834 18.5339
-2.31662 -6.66948 0.594531
3.79383 -6.65583 -7.38291
-2.83457 -18.3936 12.2751
-3.04597 11.268 21.544
1.04175 1.02033 -6.35236
0.652662 -14.9183 -3.31018
-1.65707 -26.6889 15.6441
-7.9328 -18.92 16.4862
-0.172579 -13.3553 11.3228
0.499424 6.42277 -1.6891
-4.56021 -1.41966 11.7242
4.86632 3.82153 -7.11735
16.0848 -0.501384 3.42377
-2.22663 -0.960205 3.71958
1.12325 -2.22346 16.296
11.4212 10.6807 -1.75673
6.4375 4.69874 -6.0616
0.746306 6.61825 1.09166
5.1469 -0.27934 -9.31643
1.8732 11.0538 -3.65635
17.9871 9.27031 0.0284055
-1.08177 -7.29619 18.2274
-3.75543 6.44647 13.0351
3.39709 5.26651 -8.53223
0.436532 2.72826 6.15065
1.19412 -11.1378 5.15242
0.297196 -3.89941 15.7686
0.275539 -24.4484 11.4432
2.72091 4.49702 5.98485
-2.84832 10.4224 23.3376
3.84516 16.9306 13.2031
-3.68246 -1.33549 8.49126
-8.20114 -19.6349 14.5237
1.55193 -11.6942 19.8132
8.10939 -10.4952 23.744
0.189857 -14.9612 -3.18102
-1.16794 -14.3208 -3.85275
7.30708 -2.08043 19.8311
-0.156466 -16.8964 0.614662
6.88492 -1.51289 20.0057
-2.36962 -21.185 12.8177
13.7754 -4.86801 14.7823
-4.52611 -13.1126 4.91636
-1.10374 7.43587 28.7117
4.48817 8.11621 1.96958
12.1134 14.3334 0.892008
2.23374 -3.50571 16.2439
10.0452 -7.79682 19.6429
-2.94251 -17.952 11.7339
8.9632 -16.8791 13.1523
-4.87111 -1.31085 15.7586
-0.460124 -22.0132 7.78872
-8.32373 -22.6662 15.5031
-1.40936 -18.3924 21.0544
-1.2519 -17.5216 10.5403
2.85357 -0.454526 19.1213
1.57503 5.92802 9.76236
3.97878 3.45801 -4.81189
2.49884 2.85733 6.20435
-4.42142 -18.3979 3.14884
-0.900755 -19.1547 20.8433
-4.01827 9.10732 22.7696
1.95478 8.71606 -5.5933
3.02044 -7.44513 19.1297
-0.162826 -18.5933 6.71869
3.62918 3.62223 -7.52988
-6.36457 -14.1297 10.1453
1.07897 2.44741 -6.02564
1.27748 10.5345 12.9718
-4.25984 -19.1581 13.4849
-1.96543 -25.0576 16.6559
7.79041 -3.63758 18.9405
8.53726 -12.9951 6.40741
1.65421 -6.42222 -7.96589
-4.29762 2.06401 16.6795
-1.96377 -19.6021 12.349
-1.69091 -19.4557 11.4052
-1.08295 -22.2059 7.9236
-6.33849 5.06394 26.3836
-6.98964 -21.8786 16.6698
-6.82904 -6.43707 16.7566
-4.12878 4.38666 13.0454
-2.04448 -14.4298 17.1701
-0.892377 -7.5942 -4.84196
4.88911 1.36499 21.2337
-1.86408 -14.7806 1.23563
-2.22202 -12.9556 17.6733
3.74357 -19.476 22.5918
-3.06892 -25.7331 13.3437
-3.3433 -13.2278 0.583873
-6.48796 -7.13451 14.8541
1.62947 8.22415 10.0945
1.7397 -7.85096 19.4114
-1.04316 -1.71923 17.0811
1.57743 7.36366 10.129
1.03767 10.633 17.1291
-0.859547 -22.8902 9.83479
6.38742 -6.9996 -7.28925
-0.106338 -18.0145 6.45065
8.58056 15.0198 -0.21562
-4.94109 -0.962063 13.0601
-3.45042 -10.6098 3.72817
-5.78085 -19.4395 5.45302
7.01189 -17.0596 13.1619
5.3668 19.0054 7.57244
-0.926527 -8.95277 20.884
-3.72938 -10.1282 3.3518
2.57546 -0.113186 -4.82573
4.33518 2.49081 -7.54427
2.75924 11.4311 12.5479
4.88491 4.43818 -6.71322
0.503046 0.444376 -3.20237
-7.28674 -15.1048 13.0724
11.9492 3.19655 -4.71205
4.72367 -6.53338 -11.8267
-2.76606 -4.5476 3.6089
0.2619 -13.544 0.144818
-1.04674 -19.4034 4.22141
5.44819 -1.06691 -3.99974
13.2001 -9.55041 1.9345
-0.520345 -21.264 9.89058
-1.17716 -1.12595 -0.112688
-7.53691 7.22926 23.5979
-2.41069 -19.0281 14.1118
13.862 2.03631 11.6191
-2.85893 -10.8405 1.2806
-1.82825 2.81602 4.53317
-3.06842 -1.5782 6.27779
-3.68501 -17.5205 1.72957
3.21168 -7.1162 18.5346
-1.21984 -22.9002 10.0184
-4.08531 7.01126 19.6226
-2.66321 -6.74504 1.8403
1.93089 -11.5728 -6.37336
5.58388 -12.4081 5.50762
-0.406967 -13.873 1.42337
3.57935 12.4315 11.9613
4.33016 14.3211 16.8712
0.0105235 9.42062 12.3683
5.83067 -15.4007 19.6666
7.67706 2.0188 22.7721
2.54435 11.9921 20.6579
-6.20503 -5.9149 15.0629
12.801 13.8284 0.911924
6.80819 -4.27468 18.348
-1.65949 -24.2067 10.9314
2.2431 6.11662 7.8638
16.7462 1.06133 2.90316
3.0437 6.23475 5.16988
14.2407 1.52127 12.2155
7.92123 18.885 10.2946
3.69557 0.0260676 19.6846
0.222099 -22.1707 8.03965
-7.0236 3.51793 26.4644
-5.59283 -21.3625 13.706
7.16552 2.46235 -6.75991
-7.21101 7.87447 22.7407
2.24332 -16.1324 2.85487
1.4302 -19.3846 3.74895
-7.2461 -18.758 15.9983
-2.17991 -1.96348 2.81946
6.94858 -13.2663 20.8759
4.92705 17.8787 1.16303
4.42956 -14.2204 19.3255
-2.70386 -14.8018 9.87595
-4.77046 -11.4433 6.43076
14.0412 2.61878 -4.80451
1.37934 14.2524 14.5884
9.52755 3.86974 -5.11719
5.8484 2.01424 -7.67251
-3.67263 -19.5923 17.7816
-0.930786 -2.91172 -2.11396
0.649647 7.61809 11.3079
10.7631 11.1844 -0.0140955
2.07558 11.1618 21.988
-1.73205 -12.4252 0.983241
-5.8315 1.46177 28.039
5.85644 0.467825 -2.5298
0.706337 0.754059 -5.2422
-6.1152 -5.70811 14.1424
5.04277 10.6464 -2.92591
4.05992 14.6339 10.8772
-4.78107 -18.4626 17.3896
-7.10159 -19.7607 18.1399
-4.83985 -4.58933 14.038
3.94577 -19.7985 11.1549
3.72343 9.19683 4.15136
8.20696 -14.0217 6.39466
12.75 5.37575 -5.9579
6.89517 -6.79019 -12.8756
-3.36626 -19.5564 17.9351
-5.8139 4.95096 31.7536
0.325009 1.18689 18.5443
6.27235 -6.27683 -12.2816
4.72806 16.9137 2.99764
-0.400546 9.87938 22.5052
-3.2611 -19.4349 13.7855
13.106 -3.83963 13.0279
-0.853126 -12.062 -7.43422
-1.23617 -0.730395 0.497745
-2.63938 14.1783 15.8158
4.35226 -8.72302 -6.01171
-4.35179 -19.8501 16.9771
-3.17813 -22.1907 13.6856
7.38821 1.0821 -7.88413
-4.65837 -20.2664 18.5493
6.74488 -13.1804 21.2347
-5.92584 -19.4489 17.3673
1.63814 10.2033 11.7138
-4.07528 -12.925 3.06836
-1.4256 -1.4669 0.57277
-0.999862 3.54032 1.91432
-0.724509 -12.2766 18.6936
18.4641 12.1299 2.44371
-1.85387 -21.3074 10.5212
15.6809 10.4113 0.849777
1.49959 -19.1674 18.9448
4.89718 20.3507 7.84262
19.1136 11.566 1.7853
-6.5368 -14.1296 10.8961
0.994971 -9.4376 -6.0354
-0.469217 -7.04129 -5.03696
-8.09766 -22.5316 15.1593
4.15728 -12.1069 20.5497
12.0037 -0.792256 -7.02009
-7.28276 -18.0068 11.4187
-3.8814 9.72356 21.3511
-2.39812 -12.2269 -0.289692
-4.56497 -15.1034 3.69601
-0.790835 -18.495 8.29914
-3.69503 -23.9859 15.6517
0.608722 -2.38991 -4.46104
4.40345 12.6653 3.16877
-2.32645 -14.9801 2.31614
8.04113 -0.922905 20.6725
-1.71124 1.88122 3.78469
13.3893 3.71671 12.0984
-0.725299 7.55032 28.5471
0.198442 -7.29507 -7.44224
6.86453 0.439398 21.419
3.40414 17.4349 4.64906
-4.21982 -14.3557 2.78426
-0.955283 -14.796 1.98485
1.2341 2.43969 -6.35161
12.0973 10.8847 -2.43507
-0.275548 2.28651 -1.12571
-5.12517 -19.7807 7.93503
13.7406 -8.62864 2.50241
7.44905 -5.28155 -11.3233
-3.34861 -3.78977 5.80276
2.47117 7.78206 7.53901
-1.6857 2.17982 3.33211
-8.54063 -19.6941 15.2824
12.5797 -10.0931 1.89066
-4.01304 4.41027 12.7297
12.6301 10.0968 -0.0707667
-4.55678 -15.8966 3.00749
-3.85379 -19.5771 16.9746
1.50253 11.2582 21.8494
12.6554 -3.63013 7.79627
0.619513 -5.28641 -4.31412
1.02218 2.6585 -3.83976
6.77073 20.3299 3.46283
-5.84051 4.04787 28.5995
-4.59713 8.96441 17.5823
1.04201 -23.4895 10.1862
4.92562 14.047 -1.17295
-1.39438 -16.9739 0.968818
4.86228 21.9727 5.88263
-2.15169 -13.75 -4.10807
8.67659 3.04933 -5.92842
5.77586 -10.8997 -9.25738
16.3048 2.5597 -3.74797
12.085 10.7553 -2.70247
-1.0747 -21.5672 7.77318
0.405475 -19.5547 6.84719
-4.85517 3.35559 28.4677
-4.97062 3.79518 15.5317
18.049 4.68205 -2.48892
-3.33351 0.996437 8.95685
-2.15513 -1.41526 3.03349
5.81733 -7.31861 -13.3036
-0.705132 -24.9702 12.3798
4.49049 10.0009 2.63729
-1.12546 -13.5518 10.2251
-1.96242 -22.448 18.1941
0.0563154 2.32136 -2.31544
2.30415 5.92589 -7.74081
-1.18706 -13.6582 9.4118
-4.08175 3.41139 12.2254
0.00629809 0.998976 18.7415
-2.16719 -23.3802 11.4342
2.86935 5.45717 5.9762
-4.37695 -15.6493 5.67826
12.9357 9.8512 -0.703626
-6.21284 -20.7261 8.3818
1.48651 2.19401 -6.92042
1.94755 3.25811 7.86793
3.40178 4.35615 21.9344
3.1382 12.8113 14.2889
0.576554 2.92101 5.66726
2.87951 0.436619 -2.31096
-3.91879 6.12189 13.2264
0.445818 -18.9516 18.0197
16.4537 13.5337 3.91627
8.91438 -2.75494 -8.60307
-0.411414 4.36886 8.84951
1.15068 -11.8479 4.77371
-1.09962 -5.67164 15.9625
4.7153 1.59763 -4.43332
3.74198 3.05873 21.2771
-8.74448 -19.8525 17.2271
3.45008 1.21389 -3.87905
3.99426 12.6253 19.457
6.12689 1.7328 -4.74261
-3.46985 12.7856 17.8628
-2.50348 -8.73873 0.00845912
3.65228 17.1534 12.6772
3.79392 16.9241 3.71788
-2.69092 1.80315 7.42532
3.24198 -4.07159 17.084
0.704228 4.02005 -3.36214
6.56531 3.04749 22.9019
6.0634 -15.2523 19.6492
2.7045 12.4914 10.3506
4.44231 11.4087 3.68306
0.474333 3.22718 -3.30125
-6.33271 -11.1406 12.2733
-3.60408 5.4407 26.028
-8.45736 1.80966 25.0886
-1.88039 -16.0934 -1.59926
12.3574 10.3688 -2.96789
-3.13333 -0.367906 7.50692
5.69404 18.945 9.99263
-7.16499 -14.651 13.1661
8.67872 -8.42504 -13.0479
13.3157 1.86025 12.124
15.8329 9.6146 0.447294
6.11015 -6.82526 -7.07522
-3.09543 11.5378 13.4876
4.31048 14.5334 9.7879
-6.28473 -22.3376 15.6454
15.2354 7.76411 -3.24949
15.0427 4.73669 -5.2873
5.62663 0.424844 20.8228
4.42295 -0.250404 -9.64513
1.22332 2.34098 8.25154
3.4158 -14.7562 -3.20566
0.0180588 0.711997 19.2162
5.36041 7.0707 -6.75127
14.5649 2.46161 11.7495
-2.64332 -0.213483 17.2059
4.40677 12.014 2.53006
6.61351 1.66245 -2.21551
9.19177 21.3148 6.65232
-0.505627 -5.9693 -4.58994
10.1157 0.222818 22.6523
3.12108 12.7576 10.2735
-8.32897 -21.9942 13.2542
10.8233 16.7941 2.08132
-3.69464 -14.4904 1.15198
5.51358 18.5359 8.19205
18.9554 6.59351 -0.949453
3.59044 3.99987 21.7839
-5.94518 4.46524 30.1196
-0.230913 -14.2777 17.6306
9.35286 -0.14172 -7.5277
-1.57252 -13.1246 -5.96852
2.3003 -9.08766 21.3528
2.95959 13.3583 9.04612
-5.79897 5.03839 29.5178
14.6204 16.2074 2.95426
-1.26885 -21.0567 10.1971
-1.7049 -17.9368 21.391
-6.256 -10.039 12.5134
-2.18154 5.72158 30.6832
1.43887 -12.5859 19.0496
-4.85672 11.7674 19.6759
-4.90638 11.954 20.115
-7.24801 -22.1307 15.1969
1.99186 14.112 15.4963
4.81689 14.3457 17.2374
-7.3744 -13.4998 14.7195
-4.89757 -13.8136 5.51969
-3.98736 -21.0303 6.78115
18.7689 4.97287 -2.39892
4.22981 -11.9104 5.70163
4.09733 -13.4701 -5.14864
2.30868 6.13537 7.33151
2.55188 6.23205 6.82391
12.8606 10.8214 0.444076
4.55571 10.2137 2.66687
10.5119 1.40633 -6.69234
7.96125 10.3816 -3.57356
-3.66477 7.7491 22.0071
-5.71127 0.436463 16.4432
-3.11074 -25.128 12.4157
4.12719 14.5605 11.0525
3.73381 11.692 19.2221
-1.35236 6.71789 26.834
-6.86862 -21.6861 14.7314
1.1344 -1.78731 -4.67997
3.39865 9.34267 5.23516
-0.941917 -18.6276 8.68764
3.63295 14.5756 3.08123
2.60552 -18.8689 22.5209
-4.099 8.98539 15.9712
4.08997 -3.83518 17.2438
2.85408 4.82058 3.36661
-2.37208 -2.56001 2.97077
-4.76444 -13.206 10.484
1.51292 1.64666 19.3303
-4.16061 -15.9144 1.4421
-4.1783 -15.4881 6.459
-4.55518 8.52418 21.5941
-8.2325 -21.4645 16.4738
-4.35783 -12.4161 4.40195
5.45772 16.1303 14.2924
-1.26197 -23.0575 10.3258
-6.71666 -13.2626 12.145
-0.950985 -24.127 11.1083
1.93501 8.36192 -1.11361
-3.33159 6.55801 11.4911
7.33587 0.269922 -8.16492
-3.03283 2.55073 8.11424
-1.48521 -20.8604 9.60717
1.11979 -2.71487 -9.18894
4.24826 16.7602 3.61995
1.97865 -9.39182 21.9012
3.76764 -0.88374 19.2058
5.64783 -2.05322 19.318
14.2425 1.74597 12.6743
6.18152 -4.5652 18.0502
-3.2953 -5.18804 15.0539
-2.70516 7.14622 9.8928
-7.11948 7.83339 22.4662
6.55467 1.35149 -4.48555
13.7528 -5.31831 9.71288
0.655776 2.29202 -4.1411
12.2701 2.66645 -6.74506
9.28793 3.78798 -5.73016
15.0284 16.462 3.52805
0.0277839 -16.0539 6.95604
16.2493 2.65981 6.52276
7.46029 -3.87585 -10.5164
5.39787 -5.49072 -7.8265
13.2077 -4.98036 6.50434
4.08861 13.4927 12.1456
-1.36825 -3.47206 -0.835078
6.79179 0.443563 -4.9319
-5.43259 2.07962 27.5273
6.70541 7.33787 -5.92113
-1.22284 -3.85018 15.5805
1.88949 -14.7576 2.3276
-0.602103 -22.8156 9.65597
4.69644 -14.3093 -4.07029
4.55767 10.242 -4.19016
5.18924 16.0517 0.156205
1.62342 6.86065 9.79148
0.581282 2.35684 -4.11586
-5.25477 7.71922 19.7975
-2.46511 10.8928 22.1304
5.67645 -13.4503 -5.35905
3.60732 -16.6058 20.846
-3.08012 -15.6315 -1.29559
5.48037 -15.3474 19.8263
6.62353 1.34736 21.8482
8.37163 11.89 -1.07722
-3.25146 5.66919 31.1613
-4.27943 -10.9354 5.05726
-5.55343 -15.2744 7.42287
-3.12623 -18.992 3.98043
2.72033 13.8248 16.2683
-4.20584 -17.1749 1.39459
5.22132 5.60469 -7.27125
-2.93498 8.9275 11.2996
-3.33951 3.34294 9.8644
12.5212 9.85789 -0.822485
2.59983 6.07736 6.59244
-3.10547 -8.97658 1.9519
3.52083 5.45031 2.20672
14.7043 -6.53226 2.69064
8.40678 -4.03719 18.8325
1.27621 -18.9529 18.7421
2.62858 15.585 15.2302
-7.99364 -17.8747 13.7808
6.24407 15.1608 0.117739
2.4806 -9.46957 -5.92853
-0.671769 1.26714 -0.471478
12.0178 1.88923 -7.37008
4.38983 -2.04764 16.8576
3.73695 14.3319 8.96452
7.62945 -17.0824 8.31811
-2.71369 -23.7951 12.865
13.4425 -1.51804 -6.86738
-3.16877 1.70416 18.3014
5.86936 -4.64753 -11.6132
1.4586 -1.66438 -8.44097
11.8768 3.55567 -4.95272
-0.599353 -2.11276 -2.81884
-0.666239 -1.14495 -1.89182
-6.86048 -12.6833 13.5537
15.57 10.45 -1.06733
1.47983 -20.3224 20.9233
-3.51595 -19.7538 17.3239
-6.78579 0.957245 31.1574
-2.97749 -13.6234 9.14082
3.21163 -2.89196 16.355
1.00251 2.84169 -5.28567
-5.10533 -21.3182 8.05285
-2.92277 -26.4342 15.2988
-0.346134 -16.2542 8.1587
-1.33659 -8.66851 -3.63405
-0.801155 -22.9309 9.81805
17.8394 2.54367 -3.08187
-4.07209 -19.7445 17.732
13.3079 -3.92745 12.3827
2.79744 -0.909668 -5.38078
1.85712 -20.3013 5.23256
3.62614 0.859189 -2.56347
-5.14911 -12.7115 6.79779
1.84829 -19.7719 4.19819
1.90434 2.36183 -3.39369
6.44023 -3.64311 18.4621
-1.3858 11.1568 22.0255
-6.59219 -20.5546 17.6583
-3.73899 -18.4922 12.5984
3.34307 3.9407 4.22383
6.59659 -7.94812 -7.46528
-3.55812 -25.9825 13.7687
-3.59449 -2.41741 15.6037
-1.5562 -18.534 20.8996
-1.30873 14.763 16.292
7.66323 5.74188 -6.6323
-0.239005 6.35843 1.75388
0.872439 -10.2596 0.699219
-0.985347 -22.9937 8.99719
-5.03244 6.24754 17.8709
4.62511 1.02728 20.8923
7.0777 -5.65549 -11.9213
0.98409 -19.4254 17.9997
8.2859 -11.8572 23.1795
7.07087 1.21621 21.8593
0.193239 2.10853 -2.67008
3.60582 14.3249 14.9277
0.692174 -3.21669 -4.40417
-8.66685 -21.3319 16.2958
-4.31468 -10.0461 5.32951
-4.38483 -13.5538 4.29335
-0.487896 -19.1695 7.10988
12.6858 2.48373 -6.66787
6.39374 4.26743 -6.34505
-6.11593 -23.9677 15.6981
1.49243 8.0147 10.5107
4.25851 -7.58801 -7.34348
-3.74416 -9.78529 3.85885
3.69328 12.6385 6.16383
-6.36976 -18.9329 18.9378
-4.11987 -0.933076 16.3397
-3.55491 7.05467 12.6913
2.66413 12.4976 10.4596
-0.083026 -24.0173 17.8728
-3.88717 6.41366 13.4628
1.08613 1.15907 18.8615
-5.09387 3.34566 28.4424
1.26363 -6.16997 16.5185
-0.194121 -7.14602 -7.30079
3.16936 12.5072 7.83621
3.50859 -10.7342 21.3629
3.71897 6.45235 3.66159
-2.78785 -15.0533 10.4243
-2.07951 -15.1989 5.16153
9.46022 -0.68649 -7.79481
0.617528 -5.11073 -4.05239
3.97017 10.4046 0.967498
3.43392 15.2648 11.9779
-2.53127 3.09866 6.93546
-0.345768 -18.7873 7.30498
-3.393 -1.14957 7.26058
10.4964 10.289 -0.690546
3.88597 -12.5841 19.9538
2.64207 6.37019 6.73509
3.91723 -21.6493 21.0759
7.74775 -5.94336 17.5662
11.473 11.1413 -2.7032
3.85067 3.87875 4.78806
2.01001 8.60706 9.43038
-5.24111 1.55551 17.1338
-0.454406 -11.2215 -0.45034
4.23583 -1.18739 -5.3158
-4.8173 2.92618 14.676
-0.720968 -21.3534 10.3246
3.1547 5.20513 22.3473
2.87247 1.85343 -2.84863
13.4874 7.94776 -3.32143
-8.03886 -22.3612 15.9771
0.897854 -18.1538 4.11583
8.70567 7.41951 -5.56317
12.3722 -3.50786 5.91803
-1.82758 -22.4311 9.30706
-1.23171 -14.5484 -3.72212
4.92827 15.1798 -0.477271
4.29104 17.8895 11.7616
1.21134 -19.924 21.2233
18.3757 11.5351 2.19854
6.67663 -5.7732 -12.2265
-0.545772 6.66445 21.662
1.5855 7.72468 -4.65937
-1.39334 -19.7808 11.582
8.24578 5.8185 -5.84239
5.90526 -3.86566 17.5974
8.66944 10.3433 -3.60307
7.75601 -1.47532 -9.05821
-5.06302 -11.9816 7.33151
2.64714 6.92411 7.1506
-2.9552 -17.8813 3.31633
8.00975 14.8685 -0.601418
2.03245 13.4852 14.2482
-0.268402 -2.49139 -3.7092
-5.0618 -19.02 4.004
-2.19964 -3.43438 2.21522
2.02539 -15.9494 2.98376
-3.84147 8.97307 22.4132
-4.10209 -3.24874 8.95172
4.47725 -7.74608 19.8697
-4.00502 -19.4282 19.5035
-5.1203 -13.8887 16.244
-2.62008 4.57902 8.20443
12.2029 10.2632 -1.19392
3.8006 7.31519 -1.07817
-7.31651 8.68768 24.853
13.7519 3.94823 11.5089
-0.808625 -17.6278 1.77042
8.43175 -0.0238953 -7.84656
8.48134 2.41581 -6.3876
1.08951 -11.4 4.58559
7.74152 -4.09171 -10.7509
-3.13557 -18.0168 2.37591
0.0725929 7.00144 23.0137
3.60561 13.889 9.89118
8.57465 -10.2855 23.3632
3.19513 9.38535 5.73107
4.83013 13.6204 16.4118
-2.70266 -6.24376 16.5553
3.1465 -9.46043 -6.18128
1.43768 5.03333 9.6223
-5.81674 -9.22488 11.3026
18.1233 3.24949 -2.82336
12.8988 2.47304 13.0898
-1.57223 -7.80027 -2.91302
3.50523 6.15261 4.10474
-2.10239 -20.1772 19.7405
-0.161663 -10.6701 -0.42872
-4.93393 5.62103 18.4136
14.5101 11.0097 -0.961173
-0.82941 5.39584 2.40655
1.63825 8.62354 -4.1322
14.9761 10.5445 1.04608
-4.30269 -10.8004 5.13872
4.58667 7.55475 -6.66289
4.53177 -9.16153 -6.90785
2.24449 1.16631 -2.58451
-2.9578 -15.0662 2.54356
7.70383 3.4313 -6.00551
0.51992 7.24816 23.2941
14.146 9.39533 -0.126091
1.2356 -1.40081 -5.40994
-8.67542 -19.8022 15.488
3.83422 -21.1502 21.3805
5.25318 3.75222 22.925
1.13214 -21.0077 5.97893
15.7904 2.37596 -4.50435
14.0238 9.51151 -0.311145
4.99159 14.4998 -0.890583
1.96211 -12.9889 -6.19248
-3.75916 9.55982 15.1231
-1.93679 -19.1411 3.75328
13.7832 11.3601 0.691962
-6.19037 9.63731 24.5845
14.0355 -8.27399 1.6572
-4.63141 -23.9207 15.9146
4.38356 9.68972 2.65945
7.9566 -10.421 23.4634
-3.77275 -7.20132 18.1731
-2.41709 4.59003 7.44342
4.22899 -6.0402 16.9977
6.98782 -0.0164463 -4.69155
-2.83871 6.27067 26.5143
0.977125 1.45199 19.3951
0.769373 -4.51387 -5.54265
10.9187 11.4297 -0.613133
-4.89649 -19.5246 16.5622
2.09871 6.03498 8.82784
-0.617944 -24.6972 11.8898
-2.0939 2.46052 4.58745
2.77466 1.20825 -2.66913
-2.39375 -4.87064 1.78411
-7.38547 4.03925 21.4043
4.34989 3.84724 -7.23865
-2.43939 -0.0673502 17.4391
2.8811 1.57788 8.24798
3.61361 -0.253627 -5.5701
1.11459 1.62951 -6.24035
10.5432 2.95346 -5.35185
1.61499 -18.9463 19.3925
-1.82593 -13.8938 9.12258
-4.27161 -9.09394 6.20902
12.1104 14.8772 1.27035
14.273 9.92403 -0.482786
7.03749 -18.1442 12.3148
6.45243 -9.17907 -7.81575
4.78795 4.22215 22.9457
9.97736 1.9974 -6.60793
-5.51162 -4.71012 12.7076
2.53567 8.78776 7.85437
0.994152 4.5039 3.35346
6.7971 -12.3852 23.2446
18.3489 12.7474 2.21132
6.14273 -5.04103 17.4351
-3.8481 2.04564 16.9159
3.26227 5.61301 4.63627
3.63456 13.1577 0.90929
0.469028 2.19704 7.75535
-4.22267 2.34743 12.2839
8.06502 -12.1848 -1.45385
-4.68574 -13.3225 5.20578
-6.60716 -6.45866 16.1665
6.57375 -1.30646 -3.70075
-2.50586 -18.3871 2.77934
-4.22927 -8.61427 20.1831
-4.11048 -12.5179 3.94357
13.8042 -8.60526 1.46868
2.48066 4.50371 6.79527
6.30245 -5.92549 -12.5467
7.17624 -0.551349 -3.49475
-0.583416 -17.4172 1.34763
-1.59383 -11.9084 -5.12735
4.01757 14.156 17.2004
0.154529 -12.5857 -6.73066
-3.49924 -2.08993 7.32736
1.18392 -17.1287 0.339889
-2.37912 -14.6479 -3.54176
2.8984 10.7964 7.67348
16.3549 10.4416 -0.680357
-5.28441 -21.4248 13.8717
-1.9226 -9.55648 20.3524
1.34494 5.71622 1.49068
2.82967 -11.9958 4.52525
6.44075 22.8263 4.10624
-5.47268 -3.74849 13.8259
2.31075 7.52729 8.48239
0.538743 -12.0162 19.2527
3.35608 10.174 5.93432
0.779523 -10.2893 0.913061
0.361704 14.3399 14.8896
4.74061 -6.1467 17.0404
9.36582 3.90829 -5.16935
6.24073 20.0846 2.97915
-1.873 -20.7392 11.101
0.708904 -3.45139 16.2216
11.5065 15.1913 1.33711
-3.72725 -9.08834 4.15572
2.34925 -13.8181 18.7941
-2.13488 -18.6673 12.8991
-3.4875 -26.1406 14.5215
2.25764 11.5468 -4.68675
3.05721 8.62087 6.18769
-4.92861 -15.6622 7.72495
1.72697 -0.728438 17.3831
3.42506 2.19522 20.7019
-2.89313 -4.05164 4.5394
-0.0650532 -7.95834 19.4647
10.2363 1.99938 -6.51498
6.82737 -6.55612 -8.19974
-0.966525 6.97089 10.2735
-1.44392 -10.5832 -4.88225
1.45204 7.69959 0.324162
3.32151 -20.3379 9.68032
3.05133 8.22709 6.20263
-2.14758 1.73823 17.5536
1.72408 -6.37982 -7.95175
-6.32039 0.619338 26.9615
-7.23321 -17.4328 11.165
0.247167 -5.76103 -4.00258
0.475146 9.12253 22.5393
3.08878 1.93775 -3.0579
9.65309 -3.69496 -9.14308
1.82877 16.112 0.0649978
4.5711 5.5793 23.8317
1.85629 -9.09561 21.3827
-7.58491 -17.4406 12.6618
-8.13564 8.79231 25.8479
-5.06325 2.90112 15.3719
1.76722 9.91787 -3.44988
6.1299 -14.2605 20.2574
-4.24252 -19.5251 19.2072
-7.11016 6.48047 22.2743
5.49004 3.38818 -7.09112
2.66098 -10.441 -5.5586
-0.921115 -13.7829 9.32421
-0.053227 -15.7282 7.42497
17.9706 11.9223 3.29706
5.56251 -5.40303 -8.2878
1.6102 6.14236 -5.09461
-1.93276 -15.2944 -2.60708
7.96788 -0.692759 21.1221
0.052494 11.5011 21.3372
1.70218 4.04826 3.96727
8.40354 -3.83042 -10.0802
1.35226 6.50876 -4.63644
2.93827 -1.28618 18.2271
-4.98102 -14.69 5.19258
2.39419 3.46968 6.63296
-7.14101 0.213773 28.6638
12.3416 18.8545 3.90166
-3.70667 -1.41882 16.09
-0.927455 4.52848 4.43895
-0.398178 -18.3044 2.57904
1.87028 4.28807 -6.32806
-3.3664 -24.3687 15.4514
11.7606 2.12649 -7.18154
3.59808 -0.548203 -9.98805
0.404828 -9.42592 20.9046
11.9311 -0.577179 -6.73302
9.68657 0.305344 -7.38018
-2.81839 6.26392 19.7041
-0.782421 -3.55025 15.8395
-5.89505 -12.207 9.89362
-8.28715 -21.6933 16.0709
6.97322 2.52757 22.8829
6.17904 9.17167 -5.03973
-1.35424 -6.47048 17.1691
-3.60451 -0.899674 8.30645
-3.70092 -5.77517 6.20598
-0.522428 -5.55596 15.5515
2.84259 7.91094 6.78103
3.15008 12.2527 7.58511
2.40155 -3.98049 -9.39181
2.18242 5.47177 8.15527
12.0585 -3.48047 8.21954
-2.51246 -0.781937 4.94595
-2.24906 -3.88314 15.2102
-1.87152 -17.186 0.984888
3.56797 9.92754 4.87434
2.33715 -15.8194 2.39471
9.27441 -16.4401 12.8767
7.4277 3.38341 -6.14978
5.27477 -3.0921 -9.70442
-2.79302 -19.1539 18.4487
13.7925 2.81555 -4.30035
3.94214 9.63527 3.90644
2.32753 5.87743 -7.35656
-2.07984 12.19 20.5629
-3.89725 7.30329 20.0065
-3.7818 10.8582 15.6186
2.10449 4.469 7.95981
7.15704 14.9906 0.0811777
1.43339 -9.61849 -5.84678
12.4045 9.08639 -3.38187
-5.96642 -19.3144 6.35
12.4093 -3.80229 7.65975
3.02301 5.45154 5.23727
-3.15778 -8.1412 2.60161
0.750808 -4.75729 15.3775
3.79252 9.39747 -5.60668
1.04055 -18.0421 4.1623
3.4093 10.4132 -4.48312
-0.864388 -5.40508 -3.70821
11.9459 9.87474 -3.06675
1.28656 3.69171 -5.7011
1.51959 -19.1509 18.4481
2.18705 11.1888 10.6721
-4.29706 -12.0236 4.46098
-2.14381 8.45369 9.1556
6.72308 -7.9981 -7.69244
7.44834 -0.3109 -8.39495
-6.18858 -6.62864 13.8911
7.22795 3.22431 -6.20675
1.76842 8.43786 10.1073
6.34158 -13.6158 20.9408
16.4262 14.2069 2.58184
-6.84384 -17.6243 9.53986
-0.402886 9.28473 12.2315
-3.02284 12.3751 14.5806
-5.64764 -6.59268 12.2053
-2.39609 -13.6561 -1.02718
-0.235435 8.0422 11.178
1.39697 2.89149 5.77632
-0.781897 -7.16147 -5.202
18.0065 5.03611 -1.82933
-3.15175 -1.47885 6.75149
-4.03098 -14.5893 1.7546
3.86357 6.96489 -0.234964
1.37898 8.6813 22.5523
-1.44448 1.21194 2.26068
7.20428 -12.2138 22.974
3.09907 -6.40845 17.5674
1.46572 2.70392 6.22178
-3.85972 11.5809 15.3586
-2.86163 -14.3949 0.851093
-8.47416 -17.3109 16.6151
3.03857 -20.3691 8.82627
-0.776138 -17.6405 8.79509
4.28371 8.38968 2.69538
3.82691 5.65148 2.86972
11.2379 -0.799221 -7.09164
13.566 -1.77721 -6.82621
12.7267 -0.338677 -6.4134
8.00941 -0.00111919 21.4937
-4.26223 -15.4577 6.1257
3.24263 4.40134 3.54893
18.8293 10.2045 1.85003
-4.88509 -12.9878 5.89107
16.7833 1.15467 3.54122
-7.42747 -10.9755 17.6726
5.46269 -14.5993 19.5923
3.07039 -2.08345 15.7682
2.7325 -1.34152 19.0297
6.78765 1.87354 22.2201
4.8651 13.3564 -1.50595
-4.71194 6.01546 16.1531
6.34413 -0.607965 -2.21278
2.30854 -20.8579 5.98526
-4.5101 3.41207 13.8941
-0.860227 -7.02236 -5.08096
5.78729 -10.365 22.4196
-4.51757 -19.2697 16.8908
18.8162 3.96922 -1.98779
1.5204 13.8626 15.7342
0.520062 -0.356092 -5.3185
4.47242 15.984 -0.0840911
-3.37448 -13.4058 9.25417
4.67422 -1.57245 19.387
-3.31222 1.35607 8.67055
5.43553 -2.21362 17.0006
13.3144 -6.63721 10.2496
-2.81921 -23.9539 13.6173
-3.25132 7.82833 11.3709
-0.3901 4.15355 4.13411
-6.77569 -15.2086 11.4425
-4.8021 -17.3831 3.1443
-3.14124 -2.07885 6.32254
-5.26 -14.623 6.0286
-1.31472 -0.283114 1.104
3.14512 7.3094 5.18235
7.69501 18.7755 10.4579
8.90759 0.805603 22.4845
-1.87355 7.7982 27.3143
4.57278 -2.97283 16.865
14.1768 15.7119 2.65257
4.01337 13.8462 15.7504
1.65855 -14.541 -3.93779
-4.11938 -19.1365 10.3237
2.53432 6.20353 1.02863
-2.90995 -24.1866 16.8359
-1.25585 -4.71179 14.8401
-7.53271 -12.7392 16.7372
-3.46983 11.0447 14.849
5.56925 -0.695416 -9.42306
4.96348 -7.18427 18.9058
-7.65192 2.53178 25.7373
6.82158 2.77596 -6.78265
0.925491 2.7061 -5.12965
-3.63711 -11.1548 18.4704
0.981461 6.16283 22.0449
11.0541 9.80972 -0.904535
4.07279 -19.0122 7.12157
7.12273 -2.86206 -9.69174
-1.5197 -24.0211 10.8296
-1.76878 0.289009 17.9201
-4.51096 -19.6094 16.5015
3.56837 -6.66813 17.419
1.45034 3.70935 -6.21797
-2.91604 -4.34355 4.45552
4.70957 4.48563 -6.77085
-5.11685 -18.2779 17.7555
-0.435794 -11.4755 -0.289599
1.48144 6.59406 23.2877
-4.05983 -13.2582 8.88412
-6.93298 8.71184 24.7581
5.95813 -19.4143 7.36264
-0.470791 -15.871 5.28165
4.46898 2.20666 -5.39807
2.10547 11.0993 -4.77802
-3.05317 7.49971 11.1195
-3.30257 -10.4164 2.81372
14.3706 12.9345 0.986306
1.18552 6.42143 -4.46317
-3.43325 -20.8461 18.7902
5.43664 -20.1104 10.3343
11.6966 10.9798 0.113718
-1.45717 -6.56846 17.2676
-0.411247 -11.2857 2.31603
-5.21591 -4.16023 13.4495
11.6926 -3.71436 8.18901
-0.702039 -18.6569 17.4598
5.98554 -2.97283 -10.4251
-4.14795 0.290549 10.8477
-4.57568 1.16249 12.2683
0.844025 -4.03379 -7.60351
1.78415 11.2629 21.8798
-5.57747 -5.7885 15.7319
-4.8964 -20.3381 5.80996
1.34332 -18.9279 5.77477
-4.18204 -17.8877 11.2798
2.0275 10.3247 10.3011
0.573196 7.11313 23.2483
-8.70101 -21.2114 15.9187
6.39721 18.8562 8.1602
-5.43228 -3.83112 13.6271
-2.30017 -18.7995 18.2482
6.13043 -0.0674926 20.7277
3.37027 4.71018 22.0392
2.16959 -11.9316 4.85546
7.43754 2.96854 -6.09934
-2.17328 -3.33218 1.67636
1.00428 -1.09021 16.4558
14.5506 4.34205 -5.64557
-0.7449 -21.3672 6.67084
-4.26549 -0.895629 10.5015
-5.83041 -9.09289 11.317
-2.78011 -9.50391 20.0516
5.34171 -14.684 5.67477
1.17758 -19.0116 18.8994
7.79772 11.5587 -1.41744
11.6716 10.2107 -0.15029
4.37914 -19.6583 8.11391
-4.58317 -22.2035 8.59088
6.91235 1.88743 22.3993
4.97382 0.377347 -2.3332
-4.29375 -12.9201 8.80133
3.63195 7.41783 -1.18669
-2.86521 3.12909 8.78674
0.818908 -20.107 7.39523
0.413404 5.68998 10.0534
0.660644 6.23727 10.5927
-1.51859 -19.733 11.7946
-2.94736 -1.84304 5.82088
8.87297 -2.33103 -8.59538
-5.19467 -8.72243 9.45525
16.1568 5.03849 -4.64999
-3.52152 -12.2408 3.71205
-6.34473 -21.4412 17.3212
0.288832 -10.4908 1.84396
9.08512 -6.91054 -12.1377
9.53533 16.8049 1.3414
-2.64527 -14.9122 5.29563
-7.43293 4.37758 21.7726
0.146477 -6.72716 -7.07072
0.392284 4.67044 9.3908
11.2287 9.65025 -0.843689
-7.65133 -22.3848 16.0357
-4.30777 -16.1172 6.16574
3.65966 4.68501 3.18443
4.24642 16.6372 0.241488
4.94578 -12.1865 -6.91814
4.20203 10.1207 0.745571
4.80173 -18.2195 5.83855
-0.652936 -21.2406 8.80931
1.86986 -5.14854 15.8226
-4.19134 -7.6345 18.8518
-4.8892 2.74639 28.5538
0.890437 5.98738 10.3476
7.28919 10.4109 -3.12394
-7.01425 -22.2098 15.3234
-7.49615 3.33766 20.9526
5.89707 -1.17593 19.9334
-4.47907 6.74013 16.115
17.7263 2.76953 -2.90029
1.29582 -19.5914 3.9559
-2.1534 5.55482 31.1491
4.55728 10.3167 2.34027
-0.737233 9.23286 22.0783
-4.6829 1.58621 17.6999
11.7514 9.39694 -3.5259
17.3694 9.56683 -0.822149
5.50463 -11.4642 21.378
12.6697 -5.10528 8.0994
-2.27413 5.23684 8.37647
4.24411 14.3964 10.1985
3.40896 -6.13908 16.9685
2.18635 10.6362 10.3386
-2.58599 -4.61762 2.93879
3.30464 12.2286 11.7316
17.3848 2.50684 -2.89517
-3.93389 13.3345 17.3172
6.60702 -4.45181 18.1456
-2.12695 -26.5855 14.9072
4.44346 -3.95268 17.5812
2.67163 10.6781 22.5212
-0.761848 2.037 18.2197
-0.164681 -0.140746 -2.95256
-1.20495 -8.0506 -4.21579
-2.8748 10.8339 22.313
5.68006 19.0844 9.80694
4.26003 14.2902 5.70364
13.2922 2.2468 11.8783
-2.27039 -0.303226 4.0591
-7.32465 -19.2434 18.2418
0.477141 -14.3765 -4.02448
3.04694 -11.9745 20.3017
1.69885 3.55343 4.88108
-6.81576 8.32122 27.0772
-1.24873 1.10193 1.4893
0.491209 11.2719 16.2911
5.12658 16.2469 9.4342
16.678 9.45894 0.647705
-2.32858 -2.78085 2.89766
5.8206 1.35537 -2.31971
-2.03159 -6.22093 -0.0407825
-0.998144 -11.9865 -6.99801
5.47811 1.32198 -8.0462
6.37291 -12.3303 22.8571
4.1568 -12.1479 5.17513
5.0733 -16.5535 -0.0118394
-2.34975 -6.71075 1.0126
4.52174 -8.09281 -6.53309
-2.67497 -9.5127 0.46333
0.0640662 -16.8093 5.6408
-3.97512 -4.73891 14.4692
4.51491 0.0714261 -2.35313
4.60781 17.8928 1.24844
1.82092 -2.26755 -5.36996
2.17455 5.61899 8.19634
9.83089 3.07399 -5.41227
-3.076 7.23063 10.8643
13.7319 7.47871 -3.58689
4.71579 -3.77781 17.1372
-3.35632 -24.6783 16.3519
-6.93027 -21.5263 16.9591
14.1033 0.280654 -7.50897
12.7297 13.2739 0.387489
3.59511 -20.4081 9.23896
4.57445 2.80787 -5.44577
9.35174 1.84076 -6.25209
1.62869 13.3683 16.2805
-2.43235 -23.2295 11.6897
1.84939 7.64528 -5.32936
-4.83752 -14.8364 10.5724
2.18731 4.30416 7.8787
-4.21718 -1.24983 9.97877
1.49555 -5.63272 15.7745
4.40008 -20.0407 22.4865
6.22511 -1.2267 -3.92625
-3.93449 10.8212 16.5356
1.26955 -19.0582 21.7728
5.77113 -1.79507 18.29
1.67357 7.4584 23.976
-4.82194 3.70936 14.9461
-5.17861 -16.62 19.9691
-5.95141 -18.4539 19.3016
-2.01607 -10.1611 -2.32205
2.27216 -8.55747 -6.0784
6.99859 -1.54781 -4.1138
-1.61519 -2.11677 0.630204
1.39626 9.37827 22.4701
-2.31801 -10.2688 -1.41812
0.0930757 -2.04115 -4.47574
-3.818 3.37832 11.2764
-3.11653 -19.6125 13.2766
6.69121 -1.53954 -4.39164
-4.42589 -15.428 4.77663
2.27356 4.3175 7.39759
0.562494 2.03057 7.28323
4.82294 8.86534 -5.66729
-3.89154 1.0582 10.7787
-1.04215 -10.1149 20.0391
-7.47119 -18.138 16.4675
4.36897 3.09518 -4.88968
-5.85052 -16.6247 19.6473
15.4668 4.43577 -5.23511
-5.8266 -8.83358 11.4908
3.718 -17.8314 1.55433
7.69127 6.94773 -5.80673
1.38052 4.96552 -5.26329
6.88805 3.64081 -6.19757
5.66237 10.6256 -2.77057
3.21955 15.8923 12.2674
8.36767 2.64818 -6.2424
-5.69388 1.6027 30.4815
2.42432 1.66315 8.16605
4.74135 -11.9031 5.8078
-3.49706 9.47398 14.1903
6.78285 -5.89867 17.0151
8.91594 -2.84654 -8.97771
5.84299 16.4906 0.756512
-5.67068 -18.961 13.1244
6.48097 18.2112 11.2624
2.46391 2.59083 6.48361
1.90634 13.0093 18.5331
-3.35822 1.97925 9.69553
0.143087 -17.5184 6.15155
1.38302 -3.25826 -5.36023
-0.0982513 -20.3583 18.5629
4.44223 13.4833 3.60025
7.25993 1.87039 22.5363
-6.55855 -19.0453 18.6529
6.87171 -3.89813 18.5789
0.503496 -3.31229 -3.91907
5.13199 2.65862 22.1566
4.79692 -20.6036 9.40056
4.62707 -12.1442 5.10901
9.60566 -12.2165 -1.14307
1.80992 4.73187 8.91627
2.16746 7.84029 -1.51431
-1.95353 -22.1466 18.3795
-8.15359 -22.4934 15.8187
11.6413 8.98363 -3.80767
3.73088 2.62668 -3.87565
-4.87868 4.52416 17.7713
11.6053 4.84758 -6.03419
-0.311668 2.21984 6.83142
-7.06922 -9.03073 18.5767
5.23659 12.1943 -1.53803
4.29347 18.9666 4.6455
-0.226828 -18.2924 5.92317
5.16961 17.4946 2.5123
3.64898 14.8343 7.76388
-3.25746 7.45515 26.0623
1.21143 4.94523 9.66841
-3.15921 5.81538 28.3949
12.9363 2.91963 -4.08173
1.3783 -2.78957 -9.69352
7.52797 1.75895 22.4357
9.49625 -0.972441 21.3992
8.99944 12.1547 -0.656889
-4.4468 -18.4226 12.3142
-1.02355 -18.9052 5.54791
-1.46378 -19.8408 11.5504
-0.244495 -16.6681 8.07689
2.22459 4.42006 -6.3201
1.30038 -2.35447 -9.64256
1.72752 -16.3106 2.52192
2.55008 -20.2329 5.14574
-0.601852 11.8708 20.8335
3.10647 2.7436 6.20322
5.1061 15.3755 13.4575
-0.408031 -12.3347 -7.17826
-5.3009 -20.8629 18.0015
-3.18695 -6.89708 3.49684
1.01505 1.56453 18.972
2.72556 -9.63594 -5.65029
-5.00912 -13.111 6.13677
-4.68484 6.90502 16.4908
-1.75407 -14.9258 -2.94973
4.52891 16.8075 5.97877
-1.30862 -4.62934 -1.38526
1.38202 -3.43609 -5.72967
-4.00822 -21.9701 8.29454
4.68398 -17.938 5.55608
4.71353 14.3576 -1.13678
15.0815 -1.90232 6.32253
1.47073 7.96893 24.1392
9.37955 5.07315 -6.69055
-5.37457 -17.9099 11.3435
-0.574899 -8.4407 -6.82474
0.235493 2.3354 6.72432
-4.74333 -4.28961 13.6098
13.1051 2.37021 13.1584
3.27915 11.539 6.55186
-2.70489 -18.8217 12.4625
0.174549 -18.409 5.57205
11.078 -5.7665 -10.4961
-2.89672 -13.0678 -1.35769
6.63339 -8.76754 -7.90504
1.75392 3.21044 7.97159
7.85992 -17.7561 25.1151
1.32541 -11.2208 5.19769
-6.28967 -5.81406 15.6357
-5.24716 -5.18964 14.7659
12.0181 -11.2296 0.891166
18.4742 8.80869 0.420596
-3.164 -23.336 14.8606
0.50222 -8.24879 -6.45938
0.116647 -3.4299 16.311
-0.775976 1.0428 -0.504643
1.29757 2.5101 -6.28548
-7.41221 -18.5876 12.4226
-7.48778 -20.3969 17.417
-2.46888 -5.20038 1.96652
9.95953 13.6867 -0.462254
19.0722 8.85952 0.277925
-4.41171 -10.0507 6.05089
-4.44218 -10.6299 5.65373
0.0769169 2.94534 5.59107
7.55126 -15.4853 7.84178
4.2777 13.2132 3.17813
-6.75863 9.05064 25.34
-2.86134 2.56896 17.5399
6.31378 -10.8362 -9.32949
2.37233 -4.46776 16.3936
-4.6374 2.17225 13.5356
11.5801 4.73756 -6.20832
-1.49601 -25.1666 16.696
12.9328 2.21067 -6.73623
1.99123 11.8343 -3.39783
4.24189 -4.04961 -12.0323
6.76979 6.79434 0.381422
0.810151 -6.06178 -8.29412
-5.80647 2.1671 27.2527
-2.72165 -12.301 -1.47173
-4.9462 4.85988 27.3311
1.58743 -13.8938 18.3079
12.2565 -6.45928 -9.91285
-4.45481 6.03481 14.9509
-1.83668 -21.3396 12.337
5.35107 16.9953 12.8498
6.89153 -4.79756 17.9951
-0.743282 -13.6843 1.21781
9.40916 -4.31084 -9.67499
3.62429 6.47717 3.54389
0.939729 -21.7848 7.42405
11.7485 6.93726 -5.36037
1.26707 -9.19118 21.4693
10.7548 14.7595 0.711489
12.9595 9.75196 -0.213399
-3.36054 -7.84777 3.2855
8.77388 -3.63406 -9.19767
-3.35939 6.09555 28.2554
-4.26366 -14.8825 8.35399
0.128685 -19.0426 4.87524
1.38938 -12.4395 4.61046
0.656085 -7.31449 -8.30068
-1.67557 -24.3223 17.0916
1.16004 -0.0529315 -3.46325
2.7081 -6.59846 17.7088
-5.28303 -7.09443 17.9939
10.2086 -1.48161 -7.91638
-0.142308 -22.4319 18.9779
-4.88792 -8.09159 8.75924
8.06945 -18.1815 12.1615
10.8616 3.36668 -4.94727
-7.23351 -17.4819 19.3122
16.5073 2.08664 -4.10092
-2.23335 2.4675 18.3726
3.72396 -11.4586 20.928
6.5613 6.3178 -6.68462
3.38197 10.6741 19.0319
-3.20811 -7.75836 19.0687
-0.541005 4.51359 8.75501
2.38281 -0.393807 -10.1104
2.17199 13.4742 -3.57458
7.19817 -11.6304 21.8331
18.8973 3.3095 -2.47463
-7.61941 -22.672 15.9709
-2.31892 -14.2865 -4.04103
5.27962 -18.8485 6.78751
-4.9791 10.7619 22.3665
-2.40424 -6.27928 16.6141
-5.18385 -0.656011 15.9916
-3.16026 -5.82276 15.9629
4.49672 11.1105 -2.17878
-3.03611 11.2925 13.6725
-3.21962 8.37897 11.8264
8.74698 -3.15673 -8.92221
1.02018 -3.88119 -5.59252
5.6606 -19.6101 7.78149
-1.5681 -22.5216 9.4524
-2.2695 -23.6152 11.2141
6.85492 9.86949 -3.45096
-3.23896 0.55599 8.53088
15.6492 1.03172 7.68701
-1.67661 -7.67568 -2.16719
-3.75506 -23.0515 14.6276
4.61817 7.91001 1.23329
2.40875 -2.7271 16.1618
-3.00748 -19.4958 18.081
7.05248 -6.76055 -12.7343
4.30324 15.8428 4.70522
2.7038 -1.75286 15.6476
4.77059 10.587 -4.63667
-1.94997 3.72722 5.52061
14.4432 0.908222 -6.99985
4.70783 9.92843 1.7274
13.0275 -2.86495 7.34745
0.0664884 -11.5843 19.5025
4.57613 16.0536 5.93698
-0.86239 -5.42368 15.2989
-6.76975 -8.34987 19.1398
-1.94584 7.22412 26.6545
-3.53654 4.22829 10.7597
5.318 -3.59986 -11.9811
-5.11252 6.69614 18.9521
-3.4132 -5.13356 14.8942
12.8897 10.1492 0.140881
4.26535 20.5375 7.61373
-2.46785 -9.96923 0.479278
1.70704 -6.30917 16.8794
-2.3705 -19.9491 17.8625
0.885042 -3.38099 -8.40062
-0.261485 -13.7135 10.7984
16.1485 10.2079 -1.0837
-6.14825 -13.5121 9.81265
6.40602 1.02562 -8.03993
11.5619 3.58828 -4.77575
16.8579 1.09168 1.76832
0.34164 10.9798 16.7912
3.29745 -4.23412 17.0312
1.34378 -11.9834 4.89684
-2.12391 -7.35039 -0.40331
10.0625 0.86602 -6.81702
16.235 -0.19802 4.39325
6.82101 -7.98677 -7.75561
7.20373 14.2607 -0.4615
-2.32077 -0.357998 17.4459
-2.04691 -5.72013 0.356764
-5.00278 -21.0178 8.92304
14.357 9.04809 -2.99665
7.02854 -10.7197 22.787
1.93268 8.96937 23.033
-5.36606 -1.8983 13.9139
-1.99296 -19.0922 3.59986
-4.15981 -10.9195 4.61709
-4.73448 8.77898 21.7505
16.851 10.4046 0.861658
6.88061 -1.10844 20.2674
-4.6629 -17.1515 2.66342
-1.06583 -2.57906 16.5089
2.2703 -11.1688 20.6397
0.120371 5.81442 -0.393992
0.0278314 -13.3056 -5.83114
14.1701 -7.66359 1.05434
2.94394 9.91832 6.88462
5.46597 -12.3467 21.661
-4.59264 -4.54451 14.0936
-0.866562 -22.5256 18.7853
-1.17733 -18.9425 9.93202
6.0262 -2.24947 17.8495
0.692912 -9.56383 -5.90888
-7.57489 -20.1543 14.1131
-4.45475 -15.3321 4.19649
12.8555 2.82783 11.8398
8.02915 2.55518 22.9274
-4.53761 -16.9342 7.08478
2.10413 5.80648 8.53398
0.898418 7.61235 11.2347
-3.19051 -18.5845 18.0329
4.45074 3.67497 -5.1493
0.571929 6.97531 23.0854
12.7851 2.06317 17.6376
-2.17775 10.5387 22.6157
4.76063 2.25238 -6.57462
4.07167 -12.1251 -7.28791
-8.18212 1.7132 24.7758
0.899464 9.40965 -1.05927
4.79876 0.933944 -3.25435
2.21762 -0.623996 -5.52053
6.28066 -3.55761 17.9281
1.93887 7.26163 9.30233
-2.61251 0.365761 5.47372
2.28135 5.73398 1.66821
-3.92891 2.02086 18.0659
8.68092 -2.43483 20.1472
7.91066 -1.76303 -9.05357
-4.79782 -23.0707 15.0975
-4.36232 8.40653 16.4047
1.44619 1.39381 -2.549
15.2216 11.592 1.49786
6.09498 -18.6198 6.75071
-0.892489 3.59332 1.69867
0.856776 10.476 17.348
8.86182 -8.39481 -13.028
11.2807 -5.01468 19.6744
-5.13979 -19.9126 6.99562
-1.10439 -14.177 -4.10583
1.61308 -9.31603 -6.23601
2.36987 8.02982 24.6192
1.50409 -6.62668 -7.64164
3.36998 12.5511 -2.93885
10.8168 21.6324 4.69642
-6.65179 -6.17326 16.1881
-2.98732 -18.9343 12.902
-3.60143 -11.7662 3.46914
3.02703 11.2723 -4.56559
-2.23321 -19.3019 13.3011
-4.44824 -3.00501 10.0112
-4.21286 4.797 13.8756
-4.6343 4.25067 17.6309
5.66224 4.69937 -6.36611
4.65327 16.5916 3.47657
16.531 13.0082 3.97082
-0.263695 -7.32445 -5.03709
10.8957 4.79409 -6.27233
5.75745 -3.35357 -9.87155
-1.40483 7.20638 29.7862
-1.93491 -20.3429 12.9448
-0.302362 -10.8467 -0.462369
3.13797 -5.719 16.4964
-3.87802 -6.24235 6.18725
8.24859 1.1862 -7.37363
-0.9163 -6.39662 17.0104
4.92781 15.328 13.3571
17.9984 3.95557 -2.73092
1.65621 -21.7767 7.40824
6.50496 1.73422 -2.45634
1.88494 2.50954 -8.26756
6.56111 14.4053 -0.344352
-4.78758 12.2192 20.6868
2.73888 15.0181 13.7868
1.03203 5.90687 -3.90784
0.770642 1.77275 19.378
-1.79398 13.6614 18.0456
8.309 10.3675 -2.94202
15.6115 10.5583 -0.696123
0.648097 -16.898 -0.212966
-0.621795 -19.5294 18.3495
1.50665 -17.8706 21.5058
0.441498 5.28602 3.15382
-2.63785 -9.39652 20.3724
1.61514 -20.7218 18.3295
11.2219 1.93849 -6.49388
4.46171 5.05899 36.9433
3.99266 14.0253 6.38801
2.8588 13.2806 17.4992
-5.34511 -2.92285 13.3328
5.63139 1.65398 -3.04849
2.66054 -0.724766 -5.44538
4.77744 -5.5088 -8.0507
0.253909 2.15384 -2.85171
16.0951 7.57015 -2.86583
-2.2963 -5.49525 1.07879
-0.960696 -15.5666 -2.32096
1.01458 6.57964 -2.89853
3.52956 -15.1015 18.5676
0.198688 5.48793 9.78968
-5.20599 -18.9597 3.89642
5.16093 18.2358 11.0707
-3.51168 -14.708 -0.198766
-7.35854 -17.5729 11.6088
-2.07354 -9.99121 0.37331
15.6647 -1.18275 5.08608
-4.60568 -17.2942 2.29277
-7.97875 -20.2317 17.4913
-1.1573 -3.67113 -2.0347
-0.907287 -14.874 1.84486
-0.857929 14.7388 15.6489
-4.28164 -8.60821 6.12486
3.40645 12.5022 1.98242
-7.32336 9.80536 23.6895
-1.62162 9.4472 21.9784
-0.992832 -18.71 17.5535
1.45623 -18.55 2.27425
-5.0508 6.40824 17.3312
0.824769 8.56941 24.2869
1.84362 -22.659 19.4709
-1.21147 -22.147 8.01681
-2.33718 -5.64477 1.59
5.68039 -5.61966 -12.641
-2.18973 -5.70798 15.8548
-0.356581 -6.88192 17.6489
5.60885 2.05276 21.9828
5.93221 3.01956 -7.05747
2.24505 -5.58764 15.9004
-3.36147 0.299429 17.2638
3.4822 -6.94811 18.4716
0.680524 -0.703746 -5.6737
-2.78483 -23.6538 14.2404
-1.26558 -5.19497 -2.22422
1.36624 -23.2232 18.9425
-3.81898 -21.1296 18.404
9.60902 -14.7149 14.2245
-1.27284 -20.5307 9.18296
-0.307013 0.895156 18.9173
18.3095 4.4204 -2.92755
5.28723 16.8756 13.1644
5.84266 -14.9283 19.929
-1.26068 -6.6746 -3.11435
2.94775 6.19038 5.348
1.36043 5.98243 -4.56688
-3.29197 12.8387 15.309
5.29663 -19.8494 8.12918
4.44429 14.2701 4.69798
11.3571 -6.68184 -10.8752
5.24042 -1.2232 -3.46754
-3.51041 7.16446 12.333
-1.39569 -26.6252 15.2046
-3.49779 -13.0301 2.55916
-1.36742 -3.69192 -0.836936
-1.0492 -23.7284 17.9312
3.44692 4.83611 2.97285
13.8734 -10.0433 -3.7907
4.01361 -2.7555 16.7987
-0.455391 11.2106 13.6086
1.63131 8.64524 22.2702
6.60698 -19.6656 23.3123
-2.74107 6.19111 19.9157
12.8102 12.3721 0.536592
-4.12588 -13.8499 3.75865
0.530099 0.537724 -4.33406
18.5019 9.35593 2.20337
4.60717 19.8802 5.03378
5.74173 -2.16029 17.8438
0.677942 8.04923 11.6608
7.09282 -16.9875 7.6454
-4.98766 3.06141 29.578
-3.99186 7.5288 14.6922
5.17218 3.91781 -6.91948
-4.55242 8.81097 17.3978
11.5758 11.0752 -2.83975
-0.673258 0.153565 -0.958486
4.09076 18.4815 5.80355
3.11197 13.5689 8.86538
-4.81177 7.85891 17.6813
16.097 10.4013 1.06172
-3.64817 -26.3136 15.1536
0.299277 2.90201 5.94788
-2.41616 -22.4184 12.6687
19.1765 1.10539 -5.09336
6.78673 -13.8871 21.1317
3.51638 -0.601419 -3.41358
-3.22833 -24.7397 14.3731
9.54217 -6.56204 -11.694
15.1739 0.851189 7.97831
-0.150169 -18.9624 18.5979
10.6292 -1.40532 -7.74315
-1.94154 -6.39609 -0.534636
-2.51611 -24.8358 12.1091
3.50828 13.3918 7.37633
4.02747 -16.9338 21.3869
4.52146 1.16916 -3.40685
13.0247 -3.89951 6.96078
-5.74225 -19.3354 9.30951
7.51303 0.113034 21.3051
-2.56209 -4.25897 14.4144
-2.09929 -19.6582 11.214
-3.66973 -10.6016 4.00702
2.98254 -12.1239 4.51569
-4.15124 6.91464 14.4862
9.09327 -4.39553 -10.1651
4.2258 17.179 5.64829
-3.19112 -25.996 15.4847
-3.34322 -19.9804 5.20154
0.226365 -18.8255 18.7253
-3.75123 4.66036 11.8544
6.99197 -5.23258 17.5495
7.53448 -17.1625 30.6929
4.12498 9.99941 3.49158
-3.07087 -2.58017 5.76167
3.56163 -17.2111 21.6993
16.1626 10.4888 0.707499
-1.72039 5.90997 20.4897
-2.33895 -9.80863 -1.27997
4.03277 4.21567 22.2604
-4.17095 -2.89272 14.971
4.35103 16.5104 12.3108
3.5092 -3.26942 16.6404
7.96262 -11.2109 -8.58244
-7.71567 -21.5967 16.5933
5.92217 15.0748 -0.114969
0.0795867 -13.9164 1.51006
4.42006 -19.4963 10.3912
7.05515 4.30206 -5.93852
1.62997 5.21739 9.25561
5.31081 1.56924 21.5178
9.22663 -16.2812 13.7736
-1.30081 -5.43221 15.6495
-2.93023 -19.3357 20.0107
6.57301 1.18585 -7.87347
-5.20818 -15.3241 5.6706
13.1883 14.269 1.35232
1.66547 10.4256 -2.94509
3.35369 -0.459617 -3.46115
-0.460139 -16.2994 -0.789725
2.13709 -7.41097 18.5814
3.93892 -12.6938 19.9763
0.907086 4.98405 9.84361
-3.19443 -24.7959 14.858
-1.54051 -16.5956 20.4482
-2.11629 -12.4614 0.861691
-1.62218 0.951472 2.95406
3.80886 -17.7355 1.79911
0.341221 -8.91827 21.1013
15.6681 -1.49336 4.59889
10.1188 1.70563 -6.42965
-4.76467 10.6933 21.7099
0.377033 -13.7644 0.498696
-0.986393 -10.3681 -6.25029
0.127076 7.70439 11.246
11.0283 3.31802 -4.94683
-1.60814 -5.05849 14.8496
-3.52423 -12.2582 17.7801
5.93223 -8.53178 -7.16156
9.4984 -3.6208 -8.92674
18.6302 8.3986 1.0406
0.546447 -20.7468 5.71951
5.8927 5.43575 -6.94672
-0.275676 -25.1728 17.0743
-3.11052 -24.9265 16.253
2.6999 7.24198 -7.44227
4.21945 -1.77246 16.979
5.38668 -14.7592 19.052
-0.204059 0.278538 -2.42111
2.06801 9.82761 -4.87817
-3.40212 -22.0737 17.9423
-5.21492 2.19824 29.6512
-3.22176 -8.16559 2.93348
0.84428 10.2502 17.6419
-0.373316 1.64042 -1.29415
4.44729 -18.4184 6.01257
-3.11486 -1.96652 15.9845
0.568735 -10.6108 1.77426
6.05437 2.56231 22.438
5.86706 16.955 10.8578
9.23818 -8.92612 -12.4098
5.88112 18.9673 8.05423
-5.1278 -23.8499 15.6072
-0.614442 -23.2351 10.1282
-5.50902 -6.07432 11.8353
-3.59258 6.26487 27.0682
-0.750613 5.71137 9.68878
-0.776554 -20.8614 9.88042
-0.803698 -15.2402 -2.65158
-4.71863 -0.608187 16.2583
2.42989 7.62425 -1.61676
0.765519 -22.0224 7.66588
8.02634 -3.20931 19.2579
8.64357 -3.77373 19.3161
2.28672 5.33051 -7.506
-9.22432 2.96101 27.7412
2.54545 -12.1236 5.26519
3.03881 7.43786 5.43434
1.46624 11.552 15.7093
8.28636 -4.28999 18.7783
9.32692 12.1001 -0.281265
16.8381 9.6307 0.835217
3.51818 9.35218 4.84662
1.37005 0.926096 -2.36328
-0.63203 5.12752 1.55859
12.831 -5.04543 7.96539
3.03164 -11.5835 5.4656
2.65039 -16.9725 -0.110281
1.70203 1.26968 19.1187
-1.74084 11.7778 21.008
13.3242 -5.28878 -9.24667
-3.61714 -13.1959 9.13726
1.65612 14.8817 -1.84801
3.99728 11.5004 4.38341
1.18017 -1.91701 16.066
2.03764 5.53509 -7.14796
0.30882 -22.6434 8.70312
0.56569 6.66065 22.9192
-2.90116 -15.0036 2.35335
4.45109 12.1415 3.25243
5.26526 16.3969 7.59867
-2.39049 -22.5917 12.682
-3.80672 -13.7283 4.04888
9.64098 22.2637 5.13306
-4.42168 -10.4921 5.69178
-1.3053 7.44057 27.6808
1.66833 8.0814 -4.78395
11.4882 1.59063 -6.67606
6.2251 14.2595 -0.62359
4.28069 13.7416 4.96023
10.2955 -3.86487 -9.67213
-3.3175 -2.11069 6.5667
18.6146 2.66509 -2.51545
11.3569 11.117 -2.24182
-7.08433 -18.9919 15.8329
14.0007 -8.50931 0.901842
-5.24333 -10.5579 8.67851
9.46599 -3.22333 -8.76396
7.2147 7.58437 -5.65692
-4.84226 -14.7785 6.6372
-6.58734 -11.9513 12.4898
8.54066 -4.26456 18.8591
-7.65501 -14.3083 16.557
8.69561 -3.14742 -8.96077
-6.06804 -9.92136 11.9401
4.01826 7.54461 3.00691
-4.41685 6.58472 19.2174
-7.60151 7.80181 23.4592
2.16547 7.33281 24.0858
-2.53859 -16.8347 0.679903
4.73242 -12.2406 5.38952
-0.358865 1.3105 -1.30244
-2.2536 -21.4397 12.7565
-4.19015 -16.59 1.26336
-6.47512 -18.2631 11.7206
17.4373 5.14016 -3.60839
5.63268 -3.0495 -9.55349
0.367031 -23.1443 9.58807
6.4434 16.9387 13.095
9.2258 -0.454906 21.643
3.26083 -20.2395 9.29775
-3.25369 -6.03359 4.23844
-3.94377 2.72466 17.2435
4.7242 1.77561 -6.93188
0.0271207 -23.9143 18.0071
3.31366 14.499 14.4814
-0.945162 -10.5158 1.2581
-3.5114 -12.2833 17.7848
-5.6012 4.28663 28.9184
9.61015 14.508 -0.031259
-3.43781 5.34997 25.6916
-2.43819 -16.3851 -0.31856
